10.17211 9.30411 71.25682 160.84639 238.72407 314.75254 423.67830 498.33462 558.64564 566.96637 576.50956 575.02937 528.39996 476.25295 499.85576 488.46857 435.43430 358.26365 249.33721 276.75037 396.67538 452.69465 562.51591 588.82982 605.72690 559.33085 514.15474 449.30309 355.70254 277.61739 196.79213 146.88184 234.45387 360.78008 435.95090 533.65326 568.31913 596.63752 585.73189 547.12467 475.50965 463.64933 459.21707 527.67218 513.28785 441.78510 356.19632 234.29787 176.71665 134.09895 253.77684 327.15633 410.74519 474.65021 477.51086 474.00184 520.88002 591.67519 588.32226 566.69344 481.59958 414.59190 435.41052 476.00432 506.59406 499.95664 411.17409 325.49922 258.31277 194.14924 133.39335 219.36090 345.18261 408.33817 408.53201 336.51079 186.80920 137.44779 199.33126 311.42451 393.78710 440.68748 549.34682 564.34711 533.76380 485.93053 513.33211 566.92345 576.28058 526.70512 490.42404 395.83019 325.64814 256.09254 326.74100 420.51430 517.89004 518.36804 484.32753 391.24129 268.89156 171.46766 112.02089 201.68490 338.74541 427.98315 517.38745 571.94805 597.75847 620.16795 587.65652 588.89409 528.60817 480.25153 501.30978 516.17349 492.28476 367.83316 262.01543 302.53904 346.14316 413.48664 408.23535 356.43836 206.83323 139.08363 147.82319 213.87558 350.40071 422.59700 505.83452 520.70009 478.80748 469.89466 487.97236 508.81649 531.57371 502.34029 439.26406 343.10100 261.88822 140.51838 147.05759 247.81765 369.33497 415.80762 494.10328 537.15949 526.40422 489.50681 459.40306 531.27516 572.59646 571.14503 512.14399 396.83858 327.37175 245.82403 164.69823 208.86729 297.74118 402.21917 485.75456 531.58131 522.27659 486.19285 439.04156 409.99921 442.78444 411.62438 343.78399 246.75200 231.70399 287.02444 427.44026 430.33453 373.68996 278.65989 316.25810 430.55003 495.65470 520.34144 550.17535 574.97059 556.15936 510.09624 458.26023 350.49778 407.51934 509.14412 555.21573 595.64886 614.57383 572.90839 554.98003 503.41643 429.29087 370.35500 305.62724 193.67956 86.47298 18.39608 9.95657
6.47248 4.54310 99.33475 200.63130 244.39649 335.44310 383.13527 494.60944 562.49408 619.24339 627.84607 627.21912 603.13400 529.60665 562.02552 541.54338 457.85783 356.57270 301.60520 310.21722 394.97509 483.42697 574.63262 619.61322 627.04932 572.29587 481.12841 406.40525 327.68766 278.74999 235.93398 165.85237 213.21948 293.00486 413.03693 501.22777 561.41427 625.76958 625.08483 594.43826 529.02808 546.00037 539.61539 566.62526 523.84966 462.35839 364.04305 264.78854 193.01227 141.49723 207.47909 304.41568 407.43879 489.21926 532.97485 533.82047 594.16830 639.07703 632.73756 585.31896 499.20146 409.74868 458.84066 511.19384 543.06828 516.20356 466.56103 381.81904 282.37357 199.71592 159.68501 242.98190 360.54101 429.53878 435.46850 382.52062 283.96450 166.23324 230.48432 308.05677 402.97448 481.78755 552.65000 570.95185 579.42334 603.53605 602.65019 620.09056 617.60312 552.29937 484.02943 413.01108 328.63745 313.23483 340.07865 460.33450 531.36260 525.48964 471.55620 383.89572 265.44829 150.62241 121.86906 262.97481 336.55085 444.66013 525.22758 586.41291 627.15236 661.61651 652.54501 631.62644 603.65321 555.94341 544.94328 537.83997 462.95556 387.39897 301.57912 335.54652 435.86897 452.27040 436.50827 337.10831 264.10888 155.53150 204.52182 274.88714 348.81600 415.80880 476.45625 553.77729 565.10000 558.23163 574.30758 563.09606 557.93334 478.06872 382.93185 283.86500 235.29636 143.85836 126.81125 196.39220 288.78372 390.26062 468.77381 524.14745 561.44107 562.97279 550.31430 573.31475 620.11437 615.00780 530.44944 449.23126 341.86653 285.74189 201.55918 176.36469 290.08515 362.45818 468.68717 529.78415 569.16742 563.41032 511.62312 471.50402 499.24613 474.45482 383.65531 301.35086 273.87535 370.52218 428.04419 452.41211 403.10756 313.40148 337.13403 456.47989 526.79914 603.09300 620.43702 618.25006 626.64102 539.94278 467.69874 389.04156 394.87496 549.79767 606.72418 653.80663 664.86615 622.79223 564.18389 486.63021 427.33716 353.96231 219.78490 168.58992 93.63588 7.67287 8.68944
12.60174 10.84639 109.24142 205.65326 269.03293 358.28495 407.42778 471.34122 569.90888 647.73719 681.06996 688.28719 648.17949 611.50545 628.21361 592.99601 494.42192 408.17543 379.37231 379.02006 389.43951 498.74918 607.42216 652.68711 654.28636 571.24806 479.86863 421.94568 324.62044 302.10405 289.26189 206.78544 191.50596 265.50010 361.42703 433.90490 550.04043 601.19101 662.76638 677.99556 666.04104 629.81725 618.73845 613.41662 537.65302 464.11788 347.60900 286.63181 242.36337 174.60708 192.44120 285.13321 358.30014 480.87957 544.38545 577.05556 645.94403 675.69894 646.59252 576.28453 495.43844 484.06361 507.45173 570.45247 576.78933 570.74268 487.46825 400.55900 312.21415 170.52694 213.43985 248.45007 362.93763 432.23139 455.75801 394.55545 330.55866 223.14799 203.90322 290.20539 385.39894 455.32366 527.63263 594.58807 644.99244 658.40421 675.78679 683.46395 618.59341 568.69608 468.75366 421.23987 417.33610 359.02667 399.16602 465.97057 534.04545 548.23335 452.18815 364.53764 270.80413 166.24494 111.11778 204.53630 310.05634 396.25371 451.27712 535.13721 639.42565 667.03545 711.81196 711.73105 675.73357 609.03583 605.04271 573.68637 484.94691 413.86366 348.36916 407.06199 465.66789 484.74649 448.03175 354.32256 293.91991 178.90532 207.48200 272.21820 321.02747 413.36271 475.92296 560.86335 625.83972 626.78431 628.23256 610.82643 560.23540 438.84589 372.68898 303.27947 219.04195 223.42024 177.35861 183.62852 277.68217 362.42471 427.88152 520.37080 589.57585 617.92925 605.11049 629.84884 658.81471 644.22512 551.52344 491.13749 388.52686 330.89321 215.78402 172.54713 258.39432 360.00297 457.38210 509.14318 605.89186 620.16567 577.86638 538.05518 547.06746 498.41035 441.92613 395.92393 278.80484 315.79040 418.28510 477.53524 442.47951 366.67990 373.13937 456.75465 572.84054 624.89120 662.62662 685.34228 682.07378 609.87727 490.22817 446.87021 478.36062 542.54218 634.99879 691.90227 699.64554 661.15330 567.95632 488.96594 435.74443 347.10943 256.70269 171.26734 97.43908 15.05020 11.13444
8.04771 7.26069 82.86943 174.81255 204.46896 323.07070 378.86654 485.73967 560.60505 648.67642 689.77918 735.98012 714.38813 675.43255 678.38859 616.86140 498.64589 408.68771 409.16705 411.48496 393.99981 483.21845 588.53989 658.63615 666.49424 609.28531 553.37249 443.60499 372.55234 353.32559 340.97887 294.25638 238.58894 258.50744 325.36244 393.41996 479.23002 578.21971 650.80023 709.10753 716.13624 684.77328 685.25467 633.64017 559.91061 479.80205 421.83871 358.93095 285.31128 211.71925 197.50960 296.15746 394.62271 486.09618 572.44413 630.58537 685.56962 709.72347 675.87479 615.71774 548.75974 550.46094 581.81259 623.74079 628.13064 560.95238 482.51031 378.82661 296.03926 189.66000 245.36805 292.13614 369.65460 472.62408 493.55296 461.36170 382.57010 255.29588 224.21849 253.11119 318.56251 412.44505 490.39092 595.26193 653.32873 704.24913 718.31265 722.09896 688.51125 595.59412 519.01931 461.74831 450.45402 426.25197 427.24364 499.92607 550.28020 531.86515 457.87912 386.08460 290.95397 244.79716 124.47143 195.56908 271.92144 342.64937 452.23781 536.72940 620.53376 709.44815 753.04457 743.70127 711.17069 689.66450 638.73431 562.52792 473.00105 385.09488 391.36021 457.70272 489.26085 492.73402 479.72704 371.99863 302.58777 198.92214 229.22723 242.18314 292.98826 415.63958 476.50210 573.20764 639.42210 681.04401 664.34839 594.16719 533.97026 421.62231 346.03881 291.06695 269.21003 284.55715 221.51065 159.22140 214.60670 323.34476 388.57730 491.97598 544.41066 610.16029 658.48886 701.72559 708.89036 629.57888 588.56758 451.08695 379.44708 286.81475 217.12577 195.86570 282.75261 386.47333 445.22906 574.81846 632.56018 661.51246 646.31357 611.11561 595.64427 562.45207 502.68383 401.45096 331.72530 314.47796 391.68388 504.30151 491.60571 436.77451 392.32974 469.13464 566.09701 634.87599 685.01193 707.88051 698.37071 619.99770 595.08222 541.51100 542.79479 586.13791 668.51885 709.23624 689.05462 644.95246 556.48570 475.91301 377.83673 342.80599 264.10276 147.40359 91.14741 8.46342 17.25069
7.39977 9.62660 95.04736 171.22934 249.04304 296.50346 352.91857 464.52689 545.03704 624.55952 706.57282 748.55604 769.08066 744.23400 692.13716 625.33329 530.49621 476.39787 515.14864 484.33606 430.93596 501.35963 574.71199 639.26578 687.87594 657.64642 576.32198 504.55351 439.38639 408.05724 394.60870 358.93085 272.58089 244.70569 305.19893 389.18288 495.22529 542.66135 665.14284 724.97355 764.64148 733.53391 710.02334 655.44620 596.20511 490.94550 452.33058 341.05832 268.30526 166.86679 194.13722 278.91096 409.29508 499.15007 562.37265 629.48767 685.07402 725.19043 720.29253 688.80059 631.15902 612.11898 644.23942 673.86182 638.91855 532.91945 459.93473 308.22394 271.20757 185.46568 252.75301 353.39245 438.45385 479.56585 519.86632 478.49201 397.35176 274.84492 212.74318 235.37238 334.70138 401.52227 455.35040 575.42364 657.21393 722.10041 759.64024 762.35183 717.72367 646.17587 569.39312 533.42607 498.89398 446.54478 483.73498 558.60430 590.77733 550.45020 445.51985 345.71344 253.75048 210.76022 136.12590 185.27920 257.39709 367.62117 470.43250 542.59442 603.32008 678.23825 751.06683 778.52100 752.82590 692.45556 637.64666 555.65837 470.05921 408.52467 459.87935 508.06614 533.99979 505.29212 466.14150 354.97283 256.36678 219.91676 297.78337 348.19839 348.65561 390.10580 510.85764 607.02660 658.73368 702.38423 686.89331 599.81825 526.31063 437.26095 368.01931 343.29367 329.42194 343.34296 268.81366 184.00306 208.53554 266.94875 329.08905 402.93521 490.02452 563.21025 665.85411 728.47268 719.92136 654.34512 573.31046 464.74982 410.50159 331.05782 239.04745 210.97039 323.27100 382.86785 502.20259 576.87475 663.33528 699.25819 687.79346 686.99639 656.04510 620.15591 549.74906 458.64255 376.73024 335.11875 420.36964 516.49289 543.77570 497.78624 488.09211 460.25693 529.75353 580.39875 691.82703 724.88759 714.72476 659.25939 606.56815 595.56182 632.00276 642.05656 693.32922 731.24214 691.17352 621.41282 530.58752 414.13486 334.76962 318.23254 239.36617 154.69009 95.49562 11.65837 9.80569
13.15321 13.41447 129.31324 199.31252 285.49444 366.94158 437.15793 506.75043 528.70055 636.85634 683.55675 738.40090 768.68361 761.43323 723.16353 666.33471 544.78436 541.51393 572.80400 530.78696 481.30025 497.54191 594.88656 665.90778 716.20049 680.06905 615.22067 540.89796 492.16541 500.69562 470.24345 406.48806 305.27060 259.57122 279.33546 387.91011 501.38981 564.50039 673.12129 735.78450 780.07299 753.63973 687.95633 632.82125 549.67826 499.78065 438.84125 319.06021 224.65549 221.31743 221.23445 288.94544 352.92178 454.70689 517.94911 584.95108 664.17129 716.12891 747.25069 719.65422 683.53964 691.77188 699.77619 682.47683 617.06836 546.43253 437.55572 319.44704 224.05256 206.28497 258.52909 326.02949 471.82580 517.93252 536.94489 488.82459 391.56554 281.66599 230.50092 248.06823 292.62547 376.23254 464.55108 536.35776 618.98019 711.13476 785.04665 776.97548 719.49714 644.98941 625.08715 596.69914 536.51775 495.00535 547.36609 608.54407 609.55077 544.54940 464.97130 310.40985 227.31744 148.03846 151.95183 216.89145 292.36430 360.19566 443.31933 490.47520 577.96216 679.49472 745.36018 787.87409 766.29053 703.22875 641.29017 529.41827 487.45832 475.27183 508.04223 568.12461 578.00472 482.51459 418.24063 339.09303 236.20333 261.63386 323.99505 398.04124 449.74536 459.92288 511.35136 603.39449 660.43452 714.10354 682.91063 645.96741 603.09190 449.92964 430.61352 419.64249 426.12932 397.61093 325.89701 261.09161 221.83400 269.85906 331.75260 393.20408 498.01469 571.91270 676.91375 722.10289 718.02938 656.63631 601.58220 503.99899 474.62035 323.08638 278.30316 238.90449 346.28289 403.24029 493.33870 592.18405 646.08491 734.36545 756.81302 743.67085 695.46131 660.03363 583.27430 463.68100 379.20954 385.44181 477.89282 572.50220 601.12149 586.49793 560.26706 538.94976 527.48156 594.28451 649.67066 733.38155 745.21269 715.94981 704.13103 696.75583 704.27553 731.80492 751.57867 727.31965 648.00710 570.36460 487.32253 404.81772 375.04333 312.06268 223.69384 183.01972 102.18499 10.54110 10.50303
10.94205 5.96720 115.28485 221.43376 323.88031 371.62922 443.96197 510.67273 559.26490 603.58906 675.13639 713.55957 731.28259 764.50409 741.32483 695.76816 631.97573 609.13328 619.18593 576.07404 519.85238 539.39926 629.55758 700.12986 741.93182 728.76072 686.46345 609.20911 576.21741 561.40835 523.11035 465.63998 380.63838 278.13505 316.14001 384.77230 470.20284 557.83714 654.81889 728.04631 772.52294 730.85888 678.93226 568.77844 489.60048 435.52873 341.54376 263.72852 219.63155 278.97460 291.25194 283.15127 297.07819 394.50945 466.34054 537.57630 646.33393 718.00807 779.55718 784.27478 762.89215 756.07285 731.76408 677.91464 588.63327 498.07624 413.40858 316.11212 293.47269 256.25310 247.62340 335.87676 444.41208 527.40637 551.93537 500.11802 419.13947 290.84878 258.15982 269.32888 336.68465 395.40699 480.25611 556.53413 649.56759 753.25156 778.10747 792.21790 749.14619 706.29303 661.36130 614.57803 561.88827 569.31986 607.67266 629.86282 589.80369 504.98248 450.85021 339.39710 234.80561 178.22173 161.41223 194.42137 249.53529 333.79027 385.75286 495.05294 556.18981 643.93367 723.10280 774.95966 756.31111 709.48137 627.13064 540.67666 480.31360 485.07940 563.74572 617.04992 607.28764 520.67951 422.74917 311.87380 243.36234 262.93567 354.52798 424.73628 498.22856 551.40413 590.88941 643.10609 713.83990 741.40789 729.64493 689.81500 581.81841 513.48315 498.01024 482.84208 484.90203 457.56134 399.38536 257.12817 214.93613 310.85972 371.80409 420.84122 527.42617 589.68861 680.40091 730.45263 738.84915 671.63314 622.57428 548.03902 453.81350 383.24310 277.95159 292.40070 320.79625 386.30860 456.36376 578.91134 641.64363 730.06774 785.01805 787.01369 749.60773 642.59153 554.02803 465.23396 402.12752 428.93364 493.58247 584.59317 633.57293 650.58801 656.43756 577.20244 567.09238 604.24488 687.70536 738.52360 772.35958 771.05396 748.95524 739.12721 760.00516 764.04471 751.28902 713.68892 655.02391 580.06757 489.15836 414.47591 391.51685 312.18469 243.47847 198.84835 98.92793 14.89985 8.87797
13.47196 15.40651 97.63746 202.08440 275.75888 350.23360 389.33299 450.49428 490.27617 574.18405 618.12616 644.66305 689.82161 757.92621 778.54336 743.11727 683.50744 686.45776 690.78382 634.59856 604.59702 579.93003 644.01920 720.12873 760.12113 763.84655 729.01695 672.46324 655.44715 606.83301 546.98937 462.32947 405.04490 308.52498 351.90593 425.09381 446.31303 536.63284 620.49647 694.38008 754.14047 714.66083 659.95560 594.23353 465.75445 399.45818 322.81905 252.61189 280.07655 348.09536 378.24779 398.78592 339.92617 381.27455 437.04858 533.76269 585.39436 699.82328 758.97482 799.85071 811.74464 792.02666 741.22965 649.07225 562.69489 500.54311 425.12003 389.53316 348.04150 283.24828 246.36599 345.62956 417.73292 513.29176 554.23955 484.17547 432.92003 304.65999 281.74865 324.22350 352.16267 430.63955 511.78991 585.01618 694.90249 739.52341 796.39961 818.76497 772.83195 739.35186 699.89667 634.20480 614.19259 650.11813 662.96483 637.83136 567.80700 482.64567 423.51844 351.00578 252.60197 218.13929 160.69382 201.34980 238.90385 295.63678 347.70989 425.98201 513.27394 627.19978 697.91341 767.65062 767.72026 703.12950 622.96582 539.39282 514.40638 543.74830 612.77168 640.90264 616.63418 505.68690 432.08536 372.55651 323.79123 257.72150 330.00467 439.06188 514.64761 594.01748 639.20166 690.52512 745.08896 752.94223 750.51384 677.11229 629.69047 602.46417 574.71301 573.73542 533.26185 475.22222 381.03637 331.14926 237.19718 270.26881 351.88923 437.07902 495.51586 584.03270 662.47146 712.65026 755.49374 729.46465 648.30586 585.70699 515.44827 411.58550 300.43590 323.75917 357.91712 415.28342 460.44595 555.96791 630.07907 727.07045 787.67946 787.23734 738.18976 671.65324 582.81719 510.56614 478.75172 435.21699 526.84458 579.38773 673.40701 704.60488 689.45866 667.68393 646.51434 648.73356 680.94944 748.68868 788.76027 813.26478 801.38161 796.69904 805.71876 769.21173 740.52511 673.53554 638.13997 558.99607 431.34180 362.54525 314.07864 275.90540 212.98601 124.78874 89.67340 7.79704 7.76957
13.52759 5.88125 63.90962 163.57933 228.91777 276.82950 306.06467 385.54605 411.64415 491.69379 541.38783 596.48812 674.26382 743.25949 778.15760 774.17271 738.18908 754.44949 740.84026 701.50878 659.91326 639.46468 656.74961 741.80281 782.78795 792.72882 764.69443 732.64618 662.57460 609.74915 520.27939 451.34389 377.10820 314.70833 395.09014 457.33798 492.69272 575.82992 622.80010 696.80261 760.60285 744.28170 682.42961 612.92739 480.60298 453.80188 374.34243 283.08698 289.12846 344.30678 440.23480 470.98346 418.04988 427.07875 497.95687 557.98861 641.36410 696.39874 755.80117 819.50744 829.48261 802.39966 704.80943 647.54511 540.52522 512.70067 447.26477 442.16525 385.69898 314.04594 238.35149 308.80156 394.66483 509.90198 552.76094 518.23845 398.79914 330.52796 307.17311 365.31762 390.18447 420.84305 513.10986 592.65140 671.94227 750.59881 810.41044 825.01228 821.04720 777.59695 728.54571 666.85739 673.48872 682.05388 680.89211 606.58531 527.24334 433.42604 387.44118 277.82999 277.96333 282.68854 200.57278 237.65583 307.29051 348.38542 398.63027 446.28744 543.04865 610.76873 734.84845 766.14635 758.14349 718.79372 624.95910 566.78994 546.78235 603.65922 659.71187 670.75425 630.02258 535.89133 473.08316 388.29183 331.88140 266.80834 296.76414 418.19682 495.62413 571.98113 618.55418 689.26866 731.78498 739.72161 752.79839 711.16204 699.49052 675.64674 641.58280 629.99285 586.55156 530.65676 442.68053 351.86535 289.45594 263.08250 319.95828 393.34100 468.85414 530.93412 603.94959 703.86339 757.31575 741.21269 650.59062 569.27571 499.92953 379.36794 317.18192 324.55546 370.76350 464.75598 515.60917 579.65348 649.45277 713.12029 787.55346 809.70903 766.48423 698.13359 615.29643 524.03005 482.05323 447.38678 514.08396 593.83581 686.64811 736.50826 720.32074 706.30393 681.04377 713.68222 709.35012 748.99137 805.46416 847.65032 857.51179 833.08187 817.84340 765.46247 716.14906 617.51166 584.56509 513.51719 416.34374 384.72832 295.59441 230.08396 204.97738 127.12798 95.66920 8.53911 6.22598
13.27709 6.47050 71.31203 137.68557 165.98024 254.00263 328.85058 376.88850 459.31740 506.39009 560.21576 629.96158 671.63874 745.57127 791.99563 805.92070 790.63890 795.47785 801.71214 759.25275 727.76782 719.04612 707.21104 757.46211 810.54607 818.84065 766.98174 709.52070 647.14057 568.38524 466.63714 400.79533 330.58999 330.36145 392.67880 460.73973 534.13178 603.68510 683.64705 714.63524 759.26486 726.95805 658.65125 581.83225 504.23340 437.02078 347.46354 291.57316 287.16222 368.90972 444.39440 505.48233 487.92971 460.36760 510.62727 591.89539 685.21829 728.52663 748.62980 835.77312 823.18690 784.41497 704.44308 672.40486 592.95646 579.89666 525.39128 468.06222 380.94931 309.25839 268.09785 350.63807 411.72156 487.75987 556.06692 548.18609 391.04377 337.29482 320.75237 338.06810 391.83793 469.46592 515.21305 596.58486 661.60086 725.09576 785.20488 843.32476 830.51956 805.06723 760.91019 702.62814 721.42907 695.02711 660.54437 584.16318 514.01343 441.48897 354.35743 281.10765 321.88640 294.42955 213.72516 244.26842 323.52343 410.62492 459.02929 504.93621 584.70452 636.05731 736.13674 782.71034 764.09809 702.87842 637.13848 603.43129 571.68506 643.71001 691.21575 702.36211 669.72246 558.24044 501.71569 412.71558 352.15338 309.46654 326.32060 376.29457 425.50282 484.55261 574.38576 626.71264 685.31726 730.46239 785.87025 779.52895 765.14084 739.53078 679.72852 638.44220 601.35667 551.51361 472.25403 398.92642 253.06145 309.40703 375.31157 441.34714 460.16146 552.19465 630.63761 722.34364 756.31811 729.81744 657.12836 584.62978 500.54198 394.58613 338.44974 312.37105 383.93133 436.76310 548.25503 609.41517 651.29249 737.50544 805.16426 800.55961 777.73933 705.23096 621.92475 564.83599 510.62594 489.36384 541.01057 594.15000 717.25382 765.50637 778.03975 761.32495 723.18742 770.27640 772.78357 791.16137 836.08687 866.48156 871.14796 842.01095 818.79408 732.08887 708.74217 610.13727 565.81338 552.62616 500.17472 475.92462 405.25007 333.62390 283.72689 222.19377 93.52821 7.66578 7.84075
9.65948 11.34809 111.29211 198.90899 250.12359 325.22207 359.00224 473.57605 505.81501 573.30726 621.06228 646.95823 689.38825 749.80845 789.93767 813.52747 814.05724 831.55081 822.76991 807.03093 785.16993 772.39214 783.79377 823.26506 848.88422 824.77182 758.55617 688.07510 598.25084 547.19012 475.75517 392.91285 396.13331 416.29907 407.21499 451.06567 568.89041 636.12367 700.49957 740.63097 777.65526 757.53948 671.56938 539.97722 458.92763 403.01879 351.11365 301.73618 292.37845 385.23689 477.32335 540.89056 556.75703 561.62433 544.17273 617.28223 664.76943 725.86523 814.71856 840.65452 818.86196 777.81707 736.42353 687.19141 654.18228 601.41095 535.18205 452.04105 358.48025 286.16339 328.76111 396.00481 461.84307 537.37658 576.42699 547.71920 497.42025 406.74310 389.66098 327.15101 373.69445 443.95963 490.76781 564.18502 634.10294 699.62806 778.90609 841.24140 850.88828 827.05807 806.46917 761.43372 750.69558 690.82732 642.89626 568.70318 478.06897 392.89539 356.16283 333.61556 391.34189 319.35293 218.33386 246.26898 316.35745 435.66944 509.31809 571.34945 624.92982 707.42043 771.47758 805.15650 780.09403 712.36652 671.40902 640.03829 611.78356 684.60445 719.01727 723.66217 683.58346 582.80854 502.45273 433.41848 407.36417 394.79460 367.84982 311.74882 356.95232 469.79213 507.25674 580.18887 649.51889 742.32488 792.81417 814.81926 787.49171 721.59084 667.79459 621.14036 557.65380 517.81791 445.11884 400.15289 283.36407 295.48714 418.03501 487.23263 520.62768 620.76988 681.12374 743.44165 764.87505 738.92864 670.60323 589.89497 501.67029 424.28296 343.11255 347.95700 405.96106 443.28145 553.39630 622.25210 701.98861 742.04084 809.76164 824.77494 800.51087 746.15144 660.93871 611.35547 518.41597 498.70541 560.74219 612.01150 688.54102 771.34195 804.49687 810.84528 795.67730 818.17534 818.85931 847.59085 857.93417 878.41009 859.78805 832.88067 780.85531 715.31103 684.79809 647.83502 621.75741 560.31422 553.71150 509.77028 445.29257 408.77884 313.51782 235.86811 101.63870 8.68908 10.21984
15.50067 7.16974 88.64812 198.62886 246.80212 354.53576 428.51107 530.01497 579.34153 621.17769 664.87797 704.74190 713.13350 729.98555 743.51395 780.49382 799.44522 821.66623 838.95188 857.18884 850.85299 832.48718 840.15067 853.48629 850.71466 815.84126 753.61545 697.52040 595.46363 519.33302 445.73374 401.19262 463.44791 465.61405 456.14478 465.07823 522.40340 622.99217 695.80460 751.58967 773.40810 730.34518 652.87193 569.13962 484.29966 436.04627 434.61924 380.33517 304.82650 365.16606 487.38811 555.39864 585.62353 611.79168 639.71582 631.88571 665.53795 782.93729 825.32316 841.11692 820.72412 766.57388 713.07199 682.29270 599.38987 548.60603 494.65596 432.82112 330.71494 366.13934 414.62545 504.41806 515.10521 603.77103 616.86827 599.63039 530.44196 478.88742 424.89666 341.00179 367.58184 411.04485 520.50874 572.25710 630.23468 656.19004 784.92755 825.12022 867.19241 852.38425 803.23697 782.49939 747.90781 664.28433 602.70914 525.25846 425.12143 406.33165 408.22301 406.82953 399.26289 343.52231 256.04719 289.79515 368.58483 424.34188 515.97415 601.41649 664.28560 736.24932 789.06358 817.00387 801.03861 749.53417 734.81938 682.26647 652.05755 708.08096 757.77481 757.60136 715.60045 621.29689 546.47414 501.80894 492.23988 456.86750 389.42548 336.16091 409.69520 449.55309 501.26021 585.54564 689.99849 762.20837 819.53475 829.88220 785.93131 737.09814 652.92796 579.68628 503.85250 477.12254 380.73687 329.16066 281.39444 313.04482 409.47651 493.35358 567.12122 611.21481 705.70504 766.72674 779.27256 745.11733 692.78159 567.38693 507.94369 456.24809 376.00887 358.22582 475.00360 467.29645 531.42467 591.12642 675.00615 749.20925 804.82130 835.37747 818.32732 770.99894 697.54656 648.57578 597.36239 517.84326 552.00361 614.24137 687.55061 768.24010 834.64327 839.58279 867.48663 874.93014 868.26444 877.53648 880.69042 871.43054 852.15234 793.97237 763.13925 672.33330 616.76269 626.21391 558.63771 550.72948 539.84021 512.81654 435.01942 392.89228 281.03564 226.59252 109.54321 12.56298 7.08082
9.81979 9.89817 105.65595 162.99932 297.96627 360.48259 453.72983 515.64501 566.07484 618.07681 647.26886 662.45289 664.69747 671.42685 660.09442 703.92134 727.16217 773.40470 834.67502 861.53919 865.59307 885.42097 880.17728 873.69295 854.07469 800.75276 743.27024 674.69742 626.61471 544.73912 473.05236 421.34767 470.76309 538.37000 533.53694 514.00429 524.59263 594.77673 675.13861 750.86972 776.71255 742.48930 689.86267 592.70504 555.87354 521.90120 485.73977 420.16229 328.89313 336.17573 411.28987 518.17786 583.54247 631.28278 676.74174 709.90005 736.12523 781.01239 831.05660 848.96946 806.93133 731.38689 665.91037 582.62652 540.73734 475.93605 422.39176 389.68322 324.28141 410.34116 491.88621 586.55233 595.35104 638.74597 668.97457 645.26695 597.89393 533.30714 440.93590 354.26572 398.79760 479.09157 555.33362 629.33233 675.46694 706.14241 811.39666 864.49386 876.64891 863.87069 817.66550 755.27119 705.26529 612.23250 561.63449 496.94592 426.83920 471.78029 505.91310 464.45739 436.79741 358.22954 282.62191 289.44606 371.35617 444.37513 531.02746 554.83563 672.15145 742.47391 791.38679 831.88102 827.38659 818.90270 790.16898 728.69197 692.02728 734.95835 784.39598 769.27490 714.41921 612.67895 561.06272 576.04170 573.22871 528.86556 400.55850 377.86473 388.29248 477.89413 528.87151 591.58662 672.75079 769.14564 812.09288 834.97571 795.26224 767.88809 653.08621 597.89139 506.73684 443.53976 373.86385 373.79192 302.96582 327.54580 416.23366 486.35383 575.97051 653.35915 720.88919 776.97408 791.79060 752.24463 692.43859 602.96525 553.28817 476.57063 393.61122 435.01131 523.38572 551.75779 587.32885 600.67790 626.92885 710.87144 768.68965 822.79036 844.52780 808.65790 747.76533 704.33206 664.67929 546.82080 573.34667 626.70285 731.31574 776.01330 845.00092 874.93164 890.22970 893.85667 879.73198 877.50915 836.63441 845.11451 835.14320 790.23864 751.18238 664.45302 582.72904 531.58565 486.28038 454.16931 443.45686 450.91370 440.44940 328.25108 252.21106 161.65503 96.90785 10.84876 8.30994
10.99171 2.13484 98.97512 229.32006 301.61533 389.78218 447.60643 481.30356 501.45108 550.99872 569.86002 577.36823 611.71807 595.24519 586.98446 639.35859 690.83271 722.95443 795.74520 842.01052 885.17812 900.81541 889.07235 871.87890 825.92892 769.11505 709.56438 650.45010 576.91269 526.41613 467.68906 440.98352 504.82043 577.59288 611.46341 610.90466 577.38925 609.04402 661.31169 737.30851 790.67625 798.46362 728.26214 658.30682 608.52431 573.62507 530.72288 459.84239 355.52380 320.97081 343.47968 419.82619 522.93818 586.06694 696.31834 748.15642 767.73062 815.63130 841.57636 844.49938 795.97060 751.97117 671.08926 599.61818 531.20055 448.24116 369.36599 326.72091 350.80674 443.91784 529.34362 627.78289 674.70873 706.10179 720.80939 680.75579 631.29403 568.51116 460.79406 383.41443 437.86001 507.13210 586.77753 663.86529 714.63161 773.21307 805.47742 859.09476 872.20529 858.71384 805.65749 749.15376 680.81864 620.09644 562.71034 503.86547 465.93605 516.35428 568.35528 507.13768 455.21724 374.82791 279.48516 270.21845 337.17974 432.14136 535.63821 583.73480 675.28529 735.16638 807.76328 836.70728 854.37189 844.49869 821.30092 765.40995 726.80335 767.87139 789.00842 776.86676 713.78498 651.59437 619.76962 647.85519 625.67514 562.44368 475.62624 423.06150 383.79918 465.96909 566.06672 637.57940 684.80554 781.00630 821.24397 836.42204 806.09728 754.33842 688.63789 628.13193 558.05028 470.71615 420.21392 410.15284 351.84721 358.27695 429.95650 504.15339 581.58413 661.93739 698.91692 757.76109 797.26210 768.51032 737.95648 654.94303 572.45493 485.86912 433.65159 466.83071 564.99259 617.77382 628.28514 666.08253 677.18334 708.46710 779.78628 834.92657 859.41750 840.41560 791.14636 730.78225 664.37628 611.04937 605.63368 646.36315 711.23079 778.37620 846.71189 882.99196 900.24810 887.73484 845.30927 819.23163 800.88106 805.89968 809.57279 791.01936 748.81679 668.16451 593.03882 543.76842 485.47362 413.39675 383.74814 373.50328 356.66718 273.58244 256.23467 193.95123 96.22161 11.58862 11.32618
8.11374 8.60887 100.78403 216.07632 287.38153 350.22164 399.47804 398.50921 455.41203 467.76562 471.09770 479.93806 493.87394 541.26282 561.02316 621.79825 669.81015 754.78228 801.69587 852.94539 890.38998 906.56555 896.25374 862.27353 803.75699 755.46085 696.72887 625.06744 582.44930 541.65885 505.70377 507.37041 570.31766 637.46378 670.23513 658.74114 646.52406 655.47612 674.54137 736.94015 793.79565 808.25668 780.80618 697.25718 652.91145 595.23133 509.25489 455.65300 368.67587 321.89790 377.95889 438.88553 485.18761 574.30937 686.29171 733.76826 775.74164 830.61167 852.70260 838.42054 811.01984 736.05187 659.05977 622.63749 497.50972 444.74196 383.48175 362.50038 412.96077 481.45527 569.38502 626.03881 714.81045 762.53790 762.46020 725.58888 672.03751 586.28660 494.13822 407.91919 451.52219 545.14762 611.86962 666.71983 723.28857 773.37130 823.50858 863.51113 878.96289 870.58802 841.15487 760.83085 704.06611 637.23327 588.83243 501.49627 516.12686 575.04959 613.87132 539.56467 488.53854 393.57143 329.32558 272.81515 326.44657 399.08485 487.19473 583.26724 655.21809 689.58259 775.69685 807.63584 857.38374 858.96134 840.10036 785.05882 763.80255 797.04203 811.96220 820.54664 769.05931 715.22784 709.25849 690.66482 628.34026 582.81482 517.52626 416.53461 393.17072 455.77238 540.97566 622.55482 730.66472 781.45950 830.35783 840.05617 820.77421 706.13422 653.77994 603.80331 561.34313 480.95031 494.54768 429.41719 371.82122 349.09981 423.38754 505.40778 559.68208 606.96003 666.99101 748.91822 787.97183 794.33493 740.14460 693.27292 575.05779 527.59601 450.59019 454.55866 576.37132 639.89750 694.48678 749.43031 764.98823 764.30410 787.53375 843.43144 867.40428 857.74266 808.78334 754.77436 682.05260 663.90001 667.81991 658.72648 744.19549 782.22812 861.17103 893.41377 904.35681 862.53081 832.30919 762.75886 739.30695 717.66586 745.49784 761.46456 739.74631 701.54069 630.13176 563.76830 503.50180 451.82030 362.06409 306.75365 239.08340 199.04785 200.91048 151.76339 61.96335 4.77371 13.44582
6.30987 14.55800 124.08479 178.29005 221.87209 286.70895 275.15378 280.23785 380.93156 379.02959 388.31692 405.89548 434.64436 542.58823 596.22257 643.48160 709.41800 747.56890 789.68227 846.79151 892.58957 900.59594 911.66311 895.85191 808.42863 768.53536 715.54657 656.18162 633.93310 592.96025 531.97882 524.79068 592.42760 647.90198 709.88686 717.53904 702.62712 721.35913 727.28517 786.63723 834.04334 832.42064 775.47545 726.07943 672.70915 567.88627 490.81222 428.29643 399.30056 357.88739 449.00809 483.50746 508.58632 574.23810 624.27272 701.12386 797.04281 832.75872 844.08233 830.12677 778.25548 728.37898 644.29489 588.06502 493.74480 439.53443 382.46683 364.46380 408.92336 496.99754 593.68340 661.69093 727.53996 774.14854 761.82822 713.77698 634.74855 560.33967 463.38408 418.78942 473.82613 546.41634 600.58450 653.41629 689.02231 752.96591 807.93277 859.58640 885.52950 870.79981 844.85001 776.25690 711.74259 667.13263 576.71011 516.63335 595.52014 624.81381 657.55207 624.99482 525.84844 470.89995 389.68035 308.99707 284.39120 409.05312 472.48186 514.84394 589.35647 649.72987 713.22480 760.52607 838.48418 852.71116 849.54752 822.88446 817.24524 818.89653 853.30222 847.62757 814.08257 759.28179 739.53828 721.28129 663.43206 557.82623 499.57790 425.22219 430.25680 452.82740 541.93456 601.94400 653.51934 768.26364 805.83153 832.87497 791.41442 731.02030 686.51281 615.52113 553.62665 540.52028 535.42709 461.20770 347.97965 324.26119 399.32113 461.72973 499.31498 574.30284 634.80610 720.53400 789.69590 798.76044 748.33474 683.97978 612.43199 531.38695 470.15776 464.25961 577.47214 624.37225 706.01193 768.75662 789.70972 821.68078 828.90025 861.40269 887.49396 858.67303 813.11177 733.65270 696.92881 743.46182 753.90715 726.30514 763.44572 819.78032 860.11751 908.93073 903.69908 865.48684 807.56080 755.00024 694.44130 651.98558 648.02129 692.55645 704.91591 702.65551 625.54749 558.40305 529.34288 443.41710 400.12439 336.47210 249.77923 193.09715 148.33369 99.23469 59.07967 10.93022 13.56634
8.75000 9.05392 77.89338 117.15676 154.70485 210.63877 186.21755 211.14026 290.13623 316.35402 316.08356 383.25208 442.40027 512.50702 575.79107 625.81494 683.95316 712.67997 760.52521 814.01759 848.38986 887.77290 912.82477 890.00622 849.12080 791.73319 751.59626 708.12964 681.60686 631.49786 571.92295 535.24538 597.38471 694.68346 755.28653 776.43082 766.11189 749.99328 781.80363 824.25866 851.72672 842.25782 782.01906 730.62563 675.69886 543.59417 509.17937 510.98496 469.26849 385.93482 432.07491 508.41319 567.20794 562.04080 606.56353 681.83511 752.76290 817.76142 845.60207 828.90187 768.45008 696.68241 635.34470 536.40781 477.73700 405.67902 397.55397 378.49482 457.17099 503.95815 557.50014 652.82296 739.55392 771.50117 771.77402 734.21656 639.26508 544.49601 469.94432 425.31389 485.42396 494.59058 534.49887 602.65078 655.78798 753.03989 783.68263 831.70907 890.69443 878.53670 820.59161 764.93874 705.05739 650.34949 572.81694 578.93316 643.64269 690.37276 695.52867 651.17013 585.50845 474.21047 388.83763 324.46523 296.61622 356.38495 408.54488 438.49197 501.40260 598.59245 666.50393 719.99730 775.29634 835.19567 858.20856 851.73253 846.10586 859.14330 878.83249 876.81330 854.54955 847.83041 804.68444 754.63738 664.53280 617.80340 544.84506 433.78804 421.53667 479.74974 557.35008 610.47974 678.95905 769.57242 831.35908 842.98122 810.04101 779.15050 733.17455 650.83357 607.70044 586.83097 565.08848 462.66471 371.14077 369.66003 363.30043 405.69477 476.71935 549.72772 630.94975 718.73284 769.87957 797.43637 747.84098 693.69778 602.32646 542.93061 519.63043 481.75016 586.87801 625.60688 696.42464 768.48806 807.95015 852.28459 866.75574 894.07143 894.30787 867.14068 817.48621 748.60228 731.52635 795.35070 807.47905 793.92399 815.04445 839.91485 887.58033 908.97323 895.78146 841.17876 804.70574 723.00144 673.34409 606.68242 586.04131 611.84115 642.46433 656.02367 605.90543 513.47546 438.67307 379.91941 357.90766 331.23165 279.54819 215.37316 127.94992 85.99640 57.24804 6.42058 12.34570
6.31280 10.51622 65.39573 113.80965 154.36889 196.94506 227.40976 251.04495 266.07351 274.19826 307.06807 345.43395 381.72005 470.14128 488.28947 541.30415 634.95586 660.17486 705.87072 761.23780 803.85972 866.27453 907.25944 914.51869 881.69255 844.97890 794.32457 758.03460 709.88335 660.59164 585.93389 575.55569 649.25833 703.74714 780.34402 814.95453 829.59280 831.99839 829.21061 858.39201 873.54342 846.86135 786.73184 706.93984 644.41990 599.13977 573.91080 569.60787 481.27103 419.22582 437.50132 519.25704 586.14173 595.18357 649.85997 701.76854 748.68979 820.73012 849.21699 827.76378 790.79046 697.03020 661.47365 567.59558 507.44085 455.46431 453.83935 410.49067 452.83482 487.23834 578.86037 630.15750 738.76672 783.87066 782.45662 727.44633 644.99006 573.49972 488.69931 474.72772 497.98541 483.74876 525.07760 598.07902 669.70175 749.49197 802.96202 854.65182 876.63085 875.58819 822.09603 771.57845 706.15113 642.61620 603.01656 623.59287 682.18650 724.36998 723.28133 627.46258 562.06962 468.32723 459.03351 398.25779 345.68925 325.08956 359.43801 435.94383 492.24813 544.71233 607.98490 700.37285 777.68699 834.30712 877.67487 888.09158 896.21875 894.63660 917.09129 910.23363 888.34274 860.28911 821.16010 754.63221 706.66377 619.22799 574.97166 467.50353 430.56441 494.18558 592.42379 650.79264 720.26892 789.35691 837.19987 869.00975 846.55439 808.52374 755.61497 694.94982 664.49721 601.42858 526.41733 438.95029 391.37905 434.28335 419.91302 394.40409 455.05110 516.43577 612.20619 704.30321 764.75478 805.42469 777.88767 721.51434 693.23137 588.42412 558.84134 502.58124 532.83210 601.54444 678.87209 720.29757 797.18356 833.72682 884.74967 910.00135 912.06623 865.46912 817.70367 800.07541 782.03020 845.69989 856.10433 855.83234 867.09004 883.24794 899.57865 905.95704 886.60607 835.31603 775.54137 730.40799 654.57064 584.60240 538.80144 538.86728 589.02324 599.09959 558.04347 477.05232 384.03033 323.84034 244.73154 234.38229 212.57495 180.03858 139.79812 118.14626 77.22034 10.18962 12.08943
7.85387 13.01427 93.27260 189.96819 262.51583 273.65356 283.43828 352.51218 355.89270 364.69727 367.95540 411.40447 422.59541 481.53925 475.65106 532.79746 592.43454 633.49689 675.46465 765.17941 801.06910 855.68281 899.85444 919.70657 908.35454 861.01701 842.72265 800.44197 748.53941 668.56866 635.53387 626.55002 683.72080 718.25110 800.16643 835.84198 864.25527 881.27762 884.59404 892.59833 888.27193 845.57202 777.06501 748.82409 695.23466 661.83879 626.52206 580.38150 486.20145 415.19831 465.17156 556.27630 617.35078 670.29588 683.20454 748.27245 788.40341 843.31223 856.43520 833.68557 778.97898 715.02588 666.51038 568.88231 516.64140 445.91994 497.18045 470.95009 465.25796 482.84066 549.57385 633.52318 725.90978 779.84262 791.39723 742.49440 646.94740 573.62439 498.24893 530.10626 557.01875 568.54650 553.70856 589.87847 656.80119 746.62679 793.15613 851.32823 888.70105 885.36529 831.64256 791.35861 724.03603 698.60911 655.56253 660.70508 711.56280 750.84415 717.72466 638.70847 573.82073 547.17094 512.16172 450.40199 377.34007 320.27692 384.32007 472.62010 532.44680 583.86861 644.65086 710.11280 749.75865 818.94947 870.82194 893.89066 908.77433 924.72668 935.04482 929.63992 895.67073 867.40652 797.09047 723.00040 683.23572 615.46431 511.37985 483.09753 477.15909 519.93593 606.25760 666.16890 738.25708 790.58599 842.81724 870.93946 848.48559 793.22314 763.13265 708.77741 646.09234 560.30358 507.27433 380.34577 437.75397 469.21955 461.01733 405.67254 433.82549 497.33202 614.60350 670.80997 749.74225 810.52061 811.11715 757.20933 712.70881 633.19435 584.06640 561.94447 530.01453 592.85246 677.94851 735.63176 771.49910 858.70289 884.90348 918.43021 920.30671 886.31639 876.42236 859.27319 835.67165 876.81238 896.15441 898.48622 908.10893 908.95388 899.70805 894.98997 878.34096 821.76972 773.12751 729.40578 677.88726 606.90209 549.86090 484.53812 489.77215 500.89975 462.86386 391.98885 326.78673 278.98801 224.23414 194.71224 214.57885 181.83422 203.44118 174.76515 87.83890 8.70405 13.32613
9.28429 5.23974 123.49774 201.74298 301.74197 364.48542 402.37800 426.76461 458.97241 483.85044 497.31606 505.90061 504.41653 530.49460 538.62514 562.68652 605.95615 666.96271 734.00442 782.48634 815.63481 870.82748 895.83708 913.94076 914.73999 897.95190 881.92262 832.48466 757.77594 713.76667 675.99729 668.41984 670.25595 720.62430 803.28524 853.20700 885.33938 912.38054 917.31770 909.10692 887.07885 849.76166 817.86698 775.00256 729.20657 678.86457 626.53629 557.17644 445.32455 474.27895 540.90903 605.91358 667.97133 708.87588 710.09913 772.25001 828.41044 865.70928 866.29582 850.92248 733.65145 700.59809 643.85760 557.84118 507.27272 480.79065 527.15485 526.76091 507.23613 457.21353 508.24308 618.44584 698.75427 776.92778 789.47498 749.27969 678.09062 600.39342 522.60730 539.49824 595.06419 611.63065 565.82322 610.71748 680.04561 754.32112 814.60156 843.16865 882.38453 896.95341 847.09889 788.90251 759.07936 747.85323 703.22936 681.15915 767.13040 787.43972 734.56599 697.49021 672.10277 646.99333 575.46729 533.75350 417.49998 342.50702 407.00705 507.37849 560.07501 605.52910 664.91731 706.68196 770.39134 799.35420 843.64253 868.19047 914.76883 929.01147 936.46394 921.77811 881.57949 850.21801 766.19047 705.22999 657.45647 556.59458 514.94092 531.30913 494.92826 494.16801 582.85043 658.81242 719.62260 771.43729 833.47996 866.61518 837.47321 775.24390 711.40029 662.10547 574.51777 498.80790 447.31246 400.99507 461.22934 509.73869 515.31983 438.75754 446.32420 535.29665 586.76806 675.57947 718.54174 819.92510 828.16259 793.95065 743.24403 686.50583 647.77597 581.89365 549.55112 613.15308 673.40334 739.75946 798.93788 849.81954 894.04108 919.48787 923.57937 917.35248 907.13108 889.58879 882.60059 894.93136 927.45370 928.73976 928.48879 920.91185 887.59809 845.04773 835.08171 799.16321 779.15088 738.17395 692.27251 645.50482 570.13728 481.00946 425.84646 419.37735 414.54920 335.79759 281.32465 311.48353 322.68677 296.21634 285.32541 281.57094 269.69028 206.44828 100.62038 10.45921 4.06636
11.03280 5.51654 115.71923 223.36752 302.61251 372.99624 452.29824 495.46762 554.11317 554.55842 567.55089 555.16218 573.04719 630.47375 647.81284 642.93029 681.34628 723.11855 772.93424 815.17818 839.46598 879.53316 904.27923 925.65850 926.08535 921.46670 900.35860 865.81475 797.52354 759.24978 725.40777 734.51417 721.47349 725.85248 812.30399 839.47392 892.22273 913.20026 923.27820 901.01246 876.33263 844.75286 819.93149 763.33430 714.28988 672.93746 620.09571 507.30498 465.64315 508.14898 584.60679 640.92211 704.77146 758.30249 768.73576 792.43600 835.08550 880.37264 872.81148 817.40584 767.41019 698.65522 648.60575 605.14860 523.60912 516.10793 575.89509 596.45503 581.98085 515.87722 522.88226 576.47270 704.32382 755.84335 801.99994 781.17445 703.23727 663.32267 553.85617 518.35360 599.54849 622.26839 632.21116 600.58775 677.73595 737.78699 795.58879 860.21096 892.66479 898.03417 886.37026 846.37186 819.88634 783.72660 744.03761 753.97641 817.49231 821.87785 791.46510 766.56186 739.78453 688.15213 599.65550 542.11419 444.47685 357.34123 393.35600 423.65224 508.01196 584.99034 625.70608 676.48939 740.21608 753.32468 810.27956 842.40636 889.87424 930.54482 940.97313 910.00684 870.14043 829.13540 758.30617 707.94677 653.31947 605.84387 570.59490 556.38766 503.89997 568.11023 611.24776 667.41610 749.47121 815.00111 837.26347 857.81708 823.86646 765.50049 682.35384 609.93939 548.17185 487.51753 472.83981 443.70006 462.36961 544.52430 552.66011 505.38601 453.51443 538.51825 623.65817 690.21239 751.13948 803.93156 835.88942 825.99542 805.08213 735.76047 694.33754 630.36997 595.29240 597.51621 659.44715 722.17614 769.38026 837.42218 869.17649 908.10670 933.96525 940.62359 933.19018 934.11743 914.60909 922.83300 939.19658 931.70326 915.08846 877.33734 839.63497 814.23678 772.95939 769.21399 706.09020 675.59029 672.10403 633.50469 570.47409 506.99366 434.71405 350.51083 335.22490 314.57070 360.90521 403.63049 381.92770 396.13923 374.75837 370.69238 307.67707 235.56615 109.09447 15.47698 13.56963
12.56993 9.69516 96.67809 203.92249 308.83637 401.57784 495.48514 555.34124 583.89957 600.66559 602.48667 615.68193 644.08652 665.79133 706.98031 718.87458 723.75058 769.66200 784.93012 814.89683 828.20306 855.26516 880.11446 891.73849 904.22327 915.57429 909.82405 881.07771 843.60972 811.29196 797.62883 789.77258 788.25286 767.07081 838.82477 856.18727 896.41449 915.28343 912.67494 865.27282 862.11986 816.98028 785.76816 721.36470 658.57594 631.00940 586.97814 516.18077 484.16178 543.66510 590.28022 640.48929 732.97577 783.84655 807.19923 832.07930 870.37171 899.76929 869.53663 849.97301 787.53365 759.71518 701.19343 617.49847 535.05925 565.48818 620.82367 650.68389 603.57366 510.14037 552.02297 593.91199 713.25864 763.86096 810.32982 790.34441 726.51752 665.27280 618.92945 567.26136 575.91964 642.50100 682.84117 661.69474 662.48980 738.75220 790.06116 846.05253 871.56864 913.43300 902.55397 886.90354 851.24157 796.13653 783.49794 796.72952 845.21514 854.58464 818.76325 800.32126 732.06598 698.50462 597.27440 546.42295 478.62492 363.85397 376.16372 402.32680 465.27018 538.92432 580.74344 640.63454 668.99881 705.57486 779.53308 845.95130 872.64823 907.96325 933.10690 916.19188 874.87697 854.32190 777.83049 745.26064 690.61900 624.04744 624.55743 550.86110 536.38137 603.09660 672.60374 739.08923 783.65813 823.19146 858.78985 846.91542 811.73274 750.86518 670.11217 591.25969 534.27821 516.64748 533.24278 496.15232 473.06132 552.42652 598.85967 554.11540 486.65629 534.63542 620.15031 705.26205 764.26773 804.69910 843.95407 865.02003 840.29118 785.60915 752.70081 694.07803 648.04672 635.83680 660.97788 698.44720 716.77040 796.55672 838.52914 892.18102 920.22073 944.06336 948.40091 953.33201 957.01123 955.88279 949.57586 934.09416 903.55255 854.65456 798.19854 751.63896 719.36721 673.46933 657.87149 644.54020 587.86846 585.58453 554.17568 495.27208 443.19763 379.01832 394.72957 449.03736 436.15512 479.81459 496.27809 491.25357 448.26705 394.03537 313.59628 240.14322 116.04661 13.63536 14.66956
15.05588 10.91692 95.46620 212.65805 290.27919 361.82212 490.03707 517.38777 558.52185 572.54515 559.45657 586.84281 622.61708 673.73528 714.01820 723.74600 734.22554 746.33528 740.32760 731.76486 767.74252 816.97260 841.65480 841.25479 864.59052 899.30793 901.67346 907.65758 885.66799 876.23826 862.54736 861.14393 835.21130 803.36070 850.66166 882.56377 911.59593 919.51559 903.20727 867.18565 800.01073 742.12459 739.40527 658.35396 624.03881 580.79810 518.12069 492.63557 521.48517 564.44168 602.42123 671.56473 746.94183 815.35953 852.20401 873.11738 900.47708 913.16900 875.19035 843.23659 792.73391 753.52565 694.63244 642.60613 552.93468 608.94820 668.58630 658.02640 617.25020 536.92454 550.32307 644.87799 727.17392 797.37946 833.41982 828.63657 761.97999 719.84342 676.17045 569.03581 566.27432 632.87038 697.37304 711.27271 697.88780 733.16568 782.01271 841.96100 883.88259 918.20773 915.83897 906.08007 895.43292 839.23905 844.21972 863.30319 871.59023 880.09776 842.23474 800.40245 718.04677 632.76061 615.27434 486.09899 442.16174 373.98538 383.53668 464.70493 506.64415 538.93710 540.44865 586.43661 628.00519 706.58069 775.08021 823.97426 842.24759 891.28891 921.25230 918.42099 881.53892 849.60322 801.06113 743.70602 681.50820 695.73024 645.46492 570.38816 573.08774 645.96616 682.60106 763.69632 789.08608 843.48137 859.77632 843.29842 787.81692 712.20529 661.54735 588.84821 568.28233 610.47207 577.38015 484.28402 518.62667 576.95233 623.33635 589.69643 553.59076 528.18242 625.16537 672.32170 722.28958 763.09542 823.22196 859.84563 869.15155 836.61907 786.77272 725.23259 669.33825 664.12687 726.20971 752.44538 757.76176 775.49822 813.06359 870.69986 909.45047 934.06363 960.80060 965.72905 968.95416 964.10064 949.76895 929.69388 891.37203 863.36472 805.84223 770.40850 715.71681 655.90161 618.55002 581.76377 534.71302 507.83697 488.03953 448.78743 473.77841 464.02352 477.19715 509.25087 542.39952 532.90282 564.91690 552.29629 489.39439 378.43298 294.06681 204.67380 100.73807 10.70144 15.97919
13.48797 8.25028 119.28860 193.68824 263.80987 354.55124 459.48072 509.30245 505.48716 500.65297 464.42765 496.61219 538.93401 603.89322 643.68100 653.02230 654.27035 645.26747 629.47723 671.90132 702.33351 765.08799 777.89154 802.58748 853.47969 859.83717 865.16371 892.00971 894.51642 894.16462 905.85139 907.27866 873.24675 866.93267 865.49644 925.98555 922.22859 923.11078 900.86800 851.49935 799.28305 732.93847 719.12032 693.58442 665.31465 586.06301 534.93884 501.31399 548.83560 582.66992 641.63088 687.01219 760.84772 812.55213 859.67369 878.82769 914.95878 918.01362 886.65917 828.68047 780.76595 716.12927 676.03466 638.12465 568.79739 627.01970 691.04729 706.76607 648.79200 559.90188 575.38440 647.20579 711.63862 795.44423 834.67677 840.15712 796.24189 744.12584 671.56505 615.19160 591.89166 613.24249 715.25628 749.34762 737.35161 744.24900 790.11353 839.89843 879.35963 918.96021 940.86617 930.39202 893.48451 878.66769 880.72644 886.72592 894.37625 888.65517 847.96243 775.88342 710.00192 626.00007 597.60559 500.47707 461.13910 408.46104 427.32244 477.25408 560.03585 600.66506 616.27470 600.74981 619.89510 671.58832 735.08153 805.81816 847.35101 893.25249 923.30188 919.41311 877.52231 844.76152 776.11321 738.96511 751.78975 721.37330 674.93265 608.40017 563.27536 635.74326 687.17222 737.78750 794.68533 860.56356 868.81029 842.38361 775.30289 708.97069 653.65830 647.22642 677.94962 648.92504 622.90961 526.94035 526.27659 608.43510 652.03693 624.01387 578.13080 517.35376 562.82269 612.03395 685.50238 719.66661 813.33075 838.75355 881.53755 861.40504 804.34752 759.29882 708.46760 702.11423 724.90547 774.24607 782.92911 820.17417 831.07421 869.91878 905.60956 931.17605 963.12058 970.25939 969.65072 963.85915 952.92749 930.56239 904.21909 886.33610 851.80050 800.81344 748.45743 671.68749 634.45737 598.25197 573.63629 578.00278 547.08682 527.34512 544.66708 562.89877 580.79965 595.07740 602.16348 584.51770 581.55152 548.60544 469.27797 404.01885 257.06023 212.75356 82.35536 6.72804 13.61435
15.14006 15.72344 119.29150 205.12346 294.65953 377.49050 398.66388 416.26445 422.13745 393.20268 363.22485 442.63467 480.04812 519.21129 555.59308 583.96127 581.94141 574.84599 556.01674 610.24285 669.08950 687.57965 735.22571 781.04038 792.80994 807.51938 828.77232 841.58519 879.51537 902.94869 918.56079 920.67613 911.31670 901.72568 908.22851 933.72426 939.80547 920.59998 877.30176 836.47298 790.68971 791.17869 770.32951 739.41316 675.34200 635.30035 609.87796 533.20245 569.92775 623.32219 668.16685 711.00663 792.05912 844.89041 875.80708 908.23024 926.07761 909.93408 871.64992 819.44624 748.25597 693.11860 632.93585 602.36926 626.63814 688.89999 727.85615 736.19906 666.11955 612.86686 572.05365 668.69393 724.92914 811.78427 843.58963 856.46867 810.70123 752.51961 692.51995 659.47289 651.21929 618.64373 706.24033 764.42455 774.47895 773.53001 827.75126 860.14994 894.16668 921.21627 949.31480 944.68187 938.14852 920.20641 920.04670 916.62564 906.92746 891.35505 836.15048 810.02248 725.91022 672.88698 612.90874 520.05511 471.48295 426.81262 465.23460 524.96215 611.90685 659.19837 691.63997 684.72673 729.07563 694.18762 734.99897 807.83818 858.46935 881.49647 916.80762 916.26494 879.81048 845.95554 783.59595 810.05058 805.19785 775.69456 712.32765 665.68221 599.26681 613.69997 656.84906 719.38425 784.23607 855.07207 858.81811 849.52643 778.53115 711.92870 673.59048 727.11967 729.56047 697.36977 642.03916 578.77283 525.07189 591.01945 673.39026 653.44650 575.96174 559.16510 540.62235 582.79979 624.75854 698.46982 748.94187 837.55168 876.88984 882.34090 839.45254 809.32249 755.25724 702.22480 719.12837 756.40652 822.49364 855.08275 878.05409 891.52302 913.91262 936.07127 966.45263 969.14644 960.49859 944.06849 939.27698 924.99881 924.58348 907.20145 877.69457 827.18459 799.40333 728.14266 696.78540 687.47837 677.13422 635.58604 629.54160 622.52854 654.36803 652.70377 634.80891 643.17877 600.68026 586.06608 566.01684 518.24445 472.77697 399.38774 293.46032 218.37562 120.40760 2.22022 6.31607
11.94872 13.75830 91.49334 164.16009 244.30883 304.76387 325.20953 356.82735 325.26717 306.72558 294.36618 337.37857 431.82350 493.20396 465.09494 488.30827 487.93711 459.64049 491.53026 528.81742 607.49826 641.16735 698.90195 727.75710 759.40588 755.23082 781.13885 797.35123 834.86014 871.21175 895.13963 925.12402 931.06288 938.79067 946.72347 952.59680 948.20493 911.99370 871.25521 846.75294 828.40700 823.81191 787.88201 749.14779 689.61296 682.59308 636.00343 584.15898 596.28956 673.17429 715.37033 771.98351 802.61328 860.48673 889.02856 930.58904 925.66937 900.24615 879.38130 816.89561 759.12432 718.18232 639.82770 656.71787 678.00949 745.75623 760.45309 751.24743 727.39172 643.06977 600.12473 652.47599 758.27372 824.98999 868.30017 879.35741 839.94744 793.22503 742.76599 717.00431 669.29680 638.52865 702.86696 736.33445 797.83711 806.70887 832.85082 868.95071 910.78954 931.46890 959.81939 955.57390 950.90367 936.12203 921.41063 908.14185 893.94776 862.57499 825.98077 784.00676 729.23982 692.39318 608.79704 510.97119 443.37383 410.03670 435.09019 497.86042 602.78093 672.29064 734.18289 734.18813 753.04370 769.12008 808.81194 822.31400 861.69333 910.32906 924.98501 932.64503 893.11345 842.57641 836.40842 849.52897 847.47233 809.36866 749.21396 683.97108 624.78017 655.73902 732.33050 766.67592 819.33364 860.56979 856.06086 845.37930 798.66423 742.96694 754.97875 769.29456 757.74374 722.94676 678.73387 576.76110 562.58116 653.71036 680.56434 675.70637 592.39374 603.80958 576.63876 578.11037 639.85382 680.56473 736.51739 831.70695 870.22184 895.30089 870.92965 817.15320 776.68238 756.12116 761.34978 776.84553 808.57195 861.56239 903.48473 924.73110 943.23474 949.00591 962.70993 961.16304 941.61677 926.88873 922.28579 903.89204 895.16979 898.46331 890.00671 859.48182 830.32093 811.96970 774.05099 771.30977 747.00324 731.98329 698.11451 707.00292 700.55630 694.86662 667.76454 628.04178 587.97762 459.56111 465.15500 452.35330 415.51009 375.40255 332.62892 261.52204 101.08863 10.07178 11.04324
5.86186 9.17089 58.61601 83.87733 119.19532 208.15999 198.54608 209.51483 220.20997 201.70666 235.63009 282.05064 345.01007 400.80607 397.85997 400.17542 386.80663 427.93155 480.55041 526.61977 583.68596 590.45278 647.20423 648.78904 674.13817 696.96505 714.47433 758.14182 794.19307 833.80068 874.22636 896.93285 936.97419 952.58387 961.97598 963.70003 946.92582 925.59866 893.37530 882.96876 867.77395 825.96074 795.69420 752.73228 728.29288 723.49382 609.90234 575.74326 616.83489 663.43645 724.14099 787.61574 826.43796 878.09300 910.70103 930.50721 923.77123 891.96733 859.67546 819.54630 767.40798 701.53525 656.43074 701.85876 714.38550 776.09084 796.97574 782.81474 707.68170 656.30591 608.94209 689.06776 748.30205 812.51420 875.99353 889.99697 870.44771 834.73082 785.25952 750.49468 685.99928 649.77757 662.16274 728.04055 791.13911 852.21367 847.79033 857.38217 898.67044 927.42591 948.85564 959.39477 940.10768 935.34951 908.40099 883.47174 845.46853 830.56393 807.58550 745.19123 694.68970 639.95214 571.53570 483.30445 435.42839 478.42419 452.67673 519.11527 608.42128 662.52377 742.03036 781.13987 799.01936 816.89388 840.18383 873.99395 889.89847 921.56909 929.03944 942.28170 908.53228 885.65888 881.99396 892.25287 868.49521 820.84532 757.39490 685.28577 636.32012 684.91028 770.04450 806.38537 855.63102 874.98747 882.44078 852.82993 796.07007 787.93552 806.74876 811.95071 776.15217 745.69744 655.33726 589.82509 621.60289 683.56686 710.55198 700.83516 648.19601 667.94457 617.04746 603.48536 662.93946 734.05489 774.51259 811.67404 860.10678 885.23102 892.23868 864.80741 818.29012 791.23763 810.82077 826.82833 843.20893 861.94058 911.15603 939.07041 950.97320 962.21716 954.11457 940.26874 910.13540 890.40776 861.07289 873.28327 851.66450 875.10182 872.03676 868.04144 850.08775 836.49155 815.98860 796.80059 789.90944 761.69093 754.16401 751.19835 734.25299 698.69429 660.24537 611.08574 491.39437 427.12318 354.46353 371.43973 340.74117 324.40879 292.76362 225.05847 96.27928 12.01703 8.31371
9.40966 13.39060 54.80513 114.54132 82.39442 131.05034 130.62250 147.60774 185.17119 195.30812 238.24547 232.73280 266.34742 284.29901 303.67201 312.36647 357.57558 417.84879 463.11156 483.43907 484.31982 512.83662 573.46358 570.36815 631.83753 649.29684 663.13154 703.64544 760.93988 800.85512 855.32359 877.74716 924.77714 946.63653 967.12895 969.14319 959.49304 938.99057 930.40183 903.48124 882.25696 861.90656 835.28095 814.80001 771.26729 707.28871 633.32289 603.20413 669.27655 684.22875 747.34408 802.17804 861.86757 891.44427 924.53325 929.03232 904.44600 888.42981 845.30001 791.88126 748.22950 698.05635 676.77257 722.75045 757.87218 807.35488 823.75034 798.92683 754.06274 652.70292 635.78438 724.81019 759.93336 825.46410 858.74796 903.74412 888.00330 866.91082 823.06850 773.64818 700.68044 672.57170 707.61488 762.78319 824.62054 876.73295 890.85296 889.76559 904.89879 932.65990 958.16469 950.03059 929.65745 903.68955 878.03541 856.56794 809.04849 755.84036 731.84817 694.90133 645.24411 587.24711 507.36329 456.73613 483.15102 527.52218 491.76891 494.99860 563.66777 646.83654 714.75011 763.06226 781.17176 828.60414 839.49612 875.62579 891.60470 932.01186 948.02775 944.72011 938.04197 918.57549 915.34170 901.15091 866.09867 830.40417 741.92204 681.13700 672.98873 728.09514 770.79476 823.11671 879.08392 901.96789 901.27366 862.47948 853.64998 824.56151 845.00753 839.48184 770.53913 714.67967 624.42660 617.74218 669.19738 711.59357 758.46131 719.32049 701.27572 705.17841 690.99540 642.55633 670.79394 754.13553 808.86634 846.22889 890.14925 918.03822 910.83730 891.06495 863.97440 847.59754 844.18080 878.92582 879.40519 892.20342 914.78854 946.98868 959.05985 963.00603 947.97934 928.10153 894.96917 861.81498 842.91082 813.19129 810.30085 830.33424 812.84310 827.66417 832.54790 833.41497 808.71753 793.50083 768.31216 738.08737 737.59740 743.96894 727.23648 688.91732 636.74842 501.77289 442.13385 379.75359 303.45066 238.23866 221.29923 206.35258 214.81951 196.92231 94.74689 5.27643 5.80996
13.16931 7.54446 88.61776 155.23078 191.43223 179.68630 195.61155 238.69865 263.60926 260.71294 302.07225 362.09457 317.32144 330.66892 361.62346 353.76218 367.32575 379.77024 407.28768 450.67988 459.64053 478.45653 533.46627 569.29517 609.14416 656.09942 692.00048 732.07054 737.12523 785.41494 822.20342 871.63099 895.59674 928.28888 956.96260 970.10654 971.78453 963.88176 939.68698 930.13667 902.37623 899.65746 845.51774 815.74774 760.49250 687.83944 654.57921 625.62610 673.54394 733.70078 787.54487 837.11185 868.30231 903.29428 929.91437 931.90965 916.99130 860.31100 829.72083 776.93033 730.06792 697.08416 708.18391 752.05772 796.49416 842.47516 851.32416 824.55885 746.43299 691.89102 649.05683 698.19466 779.90069 840.75503 879.11838 909.53137 905.24050 881.95568 852.54372 768.66832 748.36916 693.91717 708.70924 795.89239 834.62581 880.67126 908.88720 927.39752 941.64429 951.46139 946.57134 938.40250 905.72198 871.76431 839.66465 837.90836 812.14312 731.09349 677.82673 653.16670 618.02356 552.28906 483.09148 462.83032 528.60350 583.64978 545.99988 536.03298 517.74607 602.55797 639.01164 705.38261 748.19209 773.02074 818.14125 857.68654 896.46817 929.93780 947.51349 955.83069 953.61806 947.24542 926.21969 908.62683 865.71817 793.06669 749.04844 696.24146 674.67543 762.14523 803.33808 853.78715 886.01018 922.26212 911.66720 914.12605 867.41054 868.03832 861.75735 835.70742 772.76858 684.10614 626.82422 644.71691 697.48404 766.36449 798.74036 745.84867 726.90293 751.21422 737.29469 673.33343 668.57423 744.89300 825.33772 857.26143 901.25144 930.80738 935.18854 913.65530 893.39286 884.33545 881.27865 886.74839 918.62882 915.94864 937.99584 957.29070 960.30786 939.10154 921.02316 906.89813 884.83795 838.51619 795.80879 773.55468 764.40960 783.18101 778.62554 757.95968 778.83050 802.88430 784.11456 727.22028 714.24409 683.43833 690.32430 669.55883 686.13430 664.95389 600.20170 546.88827 463.43362 400.75605 337.15680 257.89478 186.84707 142.67453 129.50567 93.36786 65.48017 8.05636 7.10708
9.19762 18.86565 74.96904 174.83150 221.56973 261.81987 284.39444 317.11253 329.97300 373.86158 393.00911 449.66998 422.05256 389.99887 416.92737 413.74598 429.27583 446.88507 497.25197 536.66728 518.54553 552.98453 586.51829 620.43407 667.61599 708.63280 749.44629 780.42223 788.51619 810.04983 848.89916 892.79173 915.53702 941.30186 963.62112 977.45547 985.59140 972.90033 961.28357 935.58655 913.76243 890.00558 833.91469 798.86361 731.10044 705.97600 690.17669 690.45618 682.06881 734.28903 824.36740 853.28640 895.55923 918.68637 941.79198 929.09452 915.40821 862.36446 817.31331 783.41642 754.07202 727.06027 750.88752 788.20743 838.44177 862.30077 863.57752 834.36356 781.08054 718.04995 670.95888 699.93816 734.49499 798.32284 863.21977 901.56664 921.58220 907.44206 864.08674 806.68164 754.11616 719.87792 756.01071 810.31970 841.56198 894.09880 914.38635 943.85432 956.56410 963.41365 952.15061 919.48932 889.19417 833.40555 785.38344 789.24408 768.17700 745.08773 654.19390 590.08922 545.57543 512.89681 521.09978 516.25305 532.26570 612.71214 613.26125 584.02795 525.06070 560.93091 589.90402 634.02986 656.45374 716.41727 762.55883 822.51685 872.95185 907.87011 929.26024 953.19592 957.87508 953.70933 932.67794 897.83723 857.36537 799.42878 731.87553 709.02387 706.47649 751.74596 799.29572 857.73622 898.47707 933.04493 938.16916 932.51541 915.86823 889.92090 858.74261 822.56469 762.32711 680.66998 642.98839 658.03460 740.82280 797.56330 821.44869 783.15878 758.25530 788.29608 769.76896 701.12786 689.50814 752.21569 811.46600 855.12525 882.36506 921.92910 944.22276 946.73263 931.59801 903.02403 894.45281 929.32462 943.87618 939.20436 956.42854 965.02420 952.89880 928.23412 909.73970 877.02762 853.14238 817.75665 786.93440 742.16721 716.24758 712.97352 727.79125 709.87008 713.16415 753.55156 733.05045 703.82624 629.39728 580.20135 577.28764 593.64298 621.74030 609.96094 567.68129 527.54643 467.08884 368.55792 299.65598 233.77033 178.93879 101.88485 110.19501 117.30571 77.96568 11.74742 10.33526
8.50029 7.96973 76.76386 127.00237 200.86425 254.55661 321.69073 375.56569 426.81265 452.82102 484.18408 516.28894 520.19900 515.26337 509.71439 513.60013 498.64088 544.46715 570.99167 615.46929 609.53994 626.03793 638.32384 661.91542 705.06105 752.05143 794.04931 817.25257 860.63422 841.77159 881.18555 903.07157 944.84052 946.08468 979.27643 989.80449 988.35336 980.57613 973.50077 950.48391 929.57553 909.15193 849.42774 796.43393 731.13567 719.83755 752.78964 746.22684 718.28273 748.48006 797.85745 841.05996 891.05265 917.63502 946.81004 940.47947 918.91363 879.47823 836.95620 823.98703 782.22276 750.10056 800.19143 833.96611 866.17744 883.14652 876.30590 851.44369 795.59731 756.02971 694.59432 698.73412 738.13903 810.76372 845.87786 906.95507 918.88202 911.48751 876.91620 825.13312 784.88457 752.37252 776.22015 834.01876 866.40524 909.44490 926.85315 958.95176 973.27254 969.51943 936.66697 910.80607 867.52499 816.09840 769.64780 712.89718 698.75414 679.34648 633.38076 571.33996 571.06391 572.41600 574.17237 531.35825 601.12912 654.42297 689.70904 658.61809 589.97806 591.93143 633.72799 629.63413 634.07295 688.17768 756.84347 807.24657 849.09523 886.91127 920.63542 952.04267 960.79207 941.26658 899.92279 868.10336 820.58339 790.54427 739.98291 763.33366 769.38548 755.39093 804.24894 863.81124 898.23479 929.53005 956.49597 944.48551 938.12505 906.69877 872.71708 807.51559 743.25470 689.83528 654.24638 684.13730 747.21772 839.23871 849.98754 818.27263 796.42378 812.20457 787.54423 757.05689 702.73720 731.41209 781.26261 830.84271 868.63140 924.01862 940.81016 958.22044 949.21037 937.24357 918.54529 952.35840 970.14113 965.56047 969.52493 965.25821 953.88723 924.95666 893.56245 867.75817 817.17633 779.13574 761.53178 726.37213 690.08314 676.88289 644.02298 637.66228 647.73596 663.33490 698.37115 649.68764 586.02274 532.54384 518.19480 535.02489 565.64397 546.61409 505.31115 446.65297 401.15558 313.64148 226.47279 182.13415 151.90234 165.52926 198.64516 169.52561 94.46005 12.11702 9.95073
5.44320 6.56266 96.27284 160.85111 227.36886 296.36929 335.94265 369.11286 415.45293 494.55452 526.82773 580.68732 596.37395 575.84979 588.30027 602.78749 563.57688 604.71072 669.70587 676.99965 675.06237 706.22354 703.89762 724.79639 754.93848 785.95787 824.00539 860.67406 885.39147 894.52637 907.89503 938.88336 957.10046 968.54169 964.75951 976.79135 982.40475 983.41384 982.15061 955.47014 937.60912 905.64749 871.16173 800.57388 767.82650 787.83052 797.27089 806.78836 760.95448 728.01116 776.20423 815.82408 883.66645 914.70418 942.60280 947.23660 925.88750 898.66960 877.81071 842.99886 791.42363 800.88720 833.47362 871.56448 896.68733 910.88259 897.23027 860.48713 811.78890 740.15624 737.47564 733.97117 759.15286 815.03637 876.67081 906.09555 921.03717 920.96120 877.86307 834.31910 790.39177 773.06258 791.97479 850.84971 886.98554 926.96056 947.65099 971.89533 975.05049 973.30104 942.10138 884.68631 864.86911 808.78678 777.41276 720.50099 662.61958 627.59682 572.86783 582.29334 629.72660 633.93929 596.12253 586.72097 662.93325 717.70288 741.87780 689.99691 632.80419 606.99323 661.74038 662.97005 672.13490 696.47515 725.20300 786.11779 804.34236 845.06885 916.80149 937.80262 959.59018 944.30456 915.72414 869.56237 833.78828 784.36885 786.51051 806.35596 801.70126 762.86967 831.08346 861.92274 914.87356 946.59978 949.86854 951.22488 913.97388 902.38318 850.62315 800.50282 730.13654 701.69402 686.92558 679.59267 758.67423 838.83592 858.24323 852.29140 833.30428 815.90737 799.94010 767.85837 734.35079 755.36714 783.33544 812.31975 855.38183 900.74415 936.41126 956.90085 965.27822 957.21651 960.13951 962.72829 977.40999 976.51165 975.28057 970.05713 957.50219 933.91815 902.32592 881.83860 850.09543 823.00094 789.45187 774.15316 741.75005 704.93457 667.28376 609.18300 591.16910 605.71214 609.03681 603.81403 556.82717 482.26380 436.25882 440.67762 464.41999 471.50851 427.80119 359.26131 329.19690 256.28669 199.07090 242.04934 244.78668 262.93001 274.88449 194.13879 122.38653 4.03465 9.17985
13.80398 9.71679 118.12387 211.85077 271.75166 352.92115 393.05627 428.63156 478.53547 510.31293 573.63587 633.52851 644.09481 659.90104 690.88707 654.24642 612.60423 661.77414 722.97534 763.54825 774.66402 769.45288 798.56844 811.09343 822.44358 824.40892 870.08284 897.93069 919.72251 919.22110 936.78196 948.60030 951.09129 956.62604 955.83676 964.52089 973.38931 978.84421 978.44743 966.90464 948.29105 918.08443 879.24137 841.23965 824.45156 807.47212 844.57621 845.25473 800.10343 780.90780 759.19438 815.00318 873.87143 922.17361 946.68579 951.99112 932.58723 924.38238 894.24922 837.91137 830.86180 844.23593 852.76830 899.84613 919.71181 917.30600 894.21442 853.10638 781.49728 750.37962 781.50999 780.71014 787.70888 792.79225 829.62476 898.10058 922.53668 921.26613 880.57173 826.30160 803.20983 806.56863 806.85106 850.06285 880.12656 926.92643 955.58241 970.15175 981.07282 962.75196 946.02700 905.69611 862.71872 812.30016 779.59572 731.47024 711.56476 670.98541 609.53969 641.68337 693.07296 693.20265 639.10770 626.14632 706.61910 763.88708 774.00763 750.86273 685.46056 654.41173 723.04826 723.25832 754.90433 752.01823 758.32412 756.33466 795.25479 848.72680 900.47886 935.41159 958.20744 959.70277 920.35690 883.89058 839.25340 834.40315 836.11549 838.90724 814.71465 791.93799 834.50584 887.67781 912.62597 946.47076 957.28566 938.88378 899.48806 869.10431 827.33785 774.24135 748.76087 728.05128 706.93115 720.83061 758.70542 818.40908 874.51500 884.41417 870.02324 842.85554 823.25096 818.68315 763.80437 795.96188 815.03327 836.28472 867.16006 906.34498 947.52486 962.32646 980.13905 969.73636 970.59188 967.93233 978.24359 976.40200 975.88068 961.03578 956.19911 940.80135 919.48483 905.11592 875.51094 866.57949 831.62802 823.72866 807.05920 757.93546 700.37070 652.94372 586.32272 564.02466 545.76121 539.30835 506.69063 416.51014 402.50191 378.65267 371.02746 378.86386 356.38273 309.89907 267.99856 240.63470 274.74808 311.80597 317.22050 327.29001 298.67652 197.71109 94.33706 8.57414 10.74451
8.58954 6.56124 108.90265 201.77744 259.99080 322.75701 405.53497 464.46753 525.21170 556.09249 581.47107 663.55852 709.30834 745.13080 742.96099 745.75151 733.71276 729.42650 746.16590 807.17739 806.82348 828.26930 840.36256 855.84233 855.50665 876.83597 881.61161 891.23289 909.91625 924.60627 937.87962 942.47169 940.06434 934.26089 939.27461 957.00995 949.65529 963.55618 966.86972 971.74131 958.52812 927.48154 895.39312 872.09572 861.82579 868.76382 885.92357 879.24568 866.78801 816.63182 778.63169 807.43954 869.48340 892.41426 947.02859 953.70680 963.68199 938.81885 911.27435 881.37020 835.54751 835.44182 892.51347 924.49661 939.21123 932.82515 898.44737 842.38505 797.47638 799.91734 828.57942 834.55615 828.64605 820.41151 860.40808 899.18504 929.94382 925.27447 879.00166 875.34856 837.78797 831.02169 836.10894 847.29457 902.09351 935.20234 955.47116 975.52847 976.23523 967.95207 938.01712 905.87565 873.82901 855.30112 815.39682 764.63479 702.34937 631.44711 641.77017 694.27993 722.94382 720.26955 645.92192 645.43085 717.85127 786.66355 798.36577 787.09288 719.99765 694.65619 756.66149 794.87598 809.17623 788.57178 814.23676 777.79980 828.81913 868.70847 906.89990 945.69452 963.09233 953.52984 916.87101 888.89387 857.45080 890.13021 881.11374 872.77566 811.87870 812.43592 846.64022 890.67683 928.52669 958.31479 962.47774 952.54100 903.58323 864.05414 819.91491 800.31929 779.39190 741.41709 746.45185 752.85663 804.59361 860.43197 905.45579 907.18891 902.50757 866.05117 854.23608 837.82583 789.13622 812.69571 861.08538 876.68097 913.30086 914.00150 948.99625 968.19217 977.61809 978.71378 968.00191 961.57412 964.36025 951.93600 947.25846 943.59554 939.20744 915.23592 922.08662 915.83521 908.65743 899.46787 882.23079 860.28541 824.69645 806.86897 761.08154 701.87222 648.06202 596.53643 551.16176 523.64713 463.13911 476.57073 443.83096 411.70986 377.53118 347.43390 294.44294 281.24919 304.86637 316.61249 379.83132 434.64690 429.08105 400.00220 314.09056 194.97786 118.48910 7.81282 10.89345
11.57856 9.94674 81.37510 146.77802 225.31281 272.39462 363.38591 481.80784 523.36838 614.27556 639.02537 692.74753 741.97145 776.94973 796.32014 786.30129 785.24633 794.59434 815.69644 845.46063 862.78728 864.39352 854.80805 860.98926 863.64648 855.65065 863.98278 853.68220 887.68447 917.21092 918.66582 905.70220 893.14655 908.27738 898.78057 917.96560 930.50651 938.48856 957.62837 965.88866 960.96147 941.76543 932.80964 914.99392 907.62503 889.37407 908.03094 912.05010 881.76465 846.21944 834.10689 803.66981 840.40296 900.17919 939.45251 957.00048 958.96489 953.98993 925.06358 889.27921 858.40121 848.00578 896.11569 928.52829 946.93611 930.22906 904.35133 855.70539 820.74214 827.04844 868.38099 884.19267 862.28326 864.79752 880.25221 904.21769 938.15078 932.13693 892.74119 896.75893 869.97129 854.73694 883.83892 869.49277 908.82441 933.43811 955.73343 975.96809 973.95834 962.44529 934.25861 918.96777 899.35196 856.85655 804.22991 750.19780 675.69389 648.80602 661.05498 746.14710 759.79715 751.47437 675.80983 665.33751 734.09157 793.00723 807.99701 806.33079 740.94742 743.31946 764.52241 821.26616 849.31963 873.58250 834.35641 812.63460 862.44779 871.86807 941.68244 949.43725 963.55022 957.93437 926.49844 899.40552 881.21137 898.54922 896.52848 875.30424 856.35668 841.23942 859.92864 898.56236 925.07238 957.83072 958.27500 947.42313 917.00205 872.42654 839.89569 834.80964 821.03385 789.06978 764.26773 769.30701 818.90656 870.34382 908.42629 929.49761 915.91782 891.42144 903.18372 860.61781 822.33802 812.67542 869.97239 903.66765 931.60345 941.43993 960.45366 971.15359 966.15745 962.29983 949.25913 946.39328 941.87138 933.33532 918.73376 911.04332 907.12915 891.48103 892.10651 881.96356 899.54591 895.86976 883.68931 845.32660 838.57329 826.84850 800.11337 760.32937 722.92939 660.10921 599.77435 579.59525 548.12689 537.96667 544.41537 469.53507 445.85274 406.73280 355.60778 406.06281 390.36699 429.55087 494.44176 488.07753 466.49649 395.87109 313.59696 195.88479 125.42699 6.17747 10.11495
9.30329 11.57548 87.28680 152.83856 224.98309 283.27833 357.20169 411.57411 517.15461 610.61745 670.62154 722.66466 773.01817 785.87979 814.20859 811.57248 806.55920 814.96747 827.79722 851.43785 849.34989 839.88752 837.28098 821.36954 828.45886 826.42143 820.24901 815.99788 870.80317 887.98516 888.65493 880.73141 848.10355 856.95279 894.94179 907.73658 913.81443 917.35552 933.41727 960.40151 966.52533 964.90515 960.27316 939.15194 924.69784 926.54670 930.95201 928.14208 908.87369 877.13454 868.26370 855.61066 851.68546 883.04862 924.36155 952.90976 967.91995 954.65448 929.77627 888.80952 879.73925 875.03528 907.06483 945.05206 951.56319 949.24231 918.20404 879.98929 857.94454 856.93429 901.13294 906.20698 899.97694 891.08976 899.09241 932.69802 935.61809 949.19208 922.39848 920.95089 911.50808 891.16352 900.09769 904.07110 905.40318 937.98483 966.34914 978.96085 964.00324 956.82846 914.31087 903.64649 856.16154 841.90022 779.91707 720.78826 686.72147 670.78066 711.40653 786.48913 805.55810 759.20610 695.40558 719.30683 745.69167 800.24964 835.36435 827.53443 807.12011 755.34996 779.37816 813.90578 866.89332 886.46371 873.90450 846.24046 883.46051 908.54819 939.20318 963.74249 975.64124 957.07666 955.70577 923.77294 924.25440 926.36067 915.01538 893.26368 893.52891 858.96060 874.81997 926.73594 946.27883 963.63463 969.07716 954.91875 938.73673 893.00073 867.73846 850.35120 830.13806 816.79106 801.86739 802.28446 823.70212 868.80648 916.03174 932.43129 922.48011 911.23702 903.50114 868.29117 835.71731 850.88017 859.89728 905.01273 925.51631 955.42033 969.21566 974.24063 952.88811 946.72813 931.43154 909.43035 903.04527 910.83410 880.46336 861.14464 873.89094 851.18349 839.57093 839.71165 869.73038 858.15251 838.78832 817.48793 823.65340 793.75905 801.24800 783.32136 760.18132 703.73888 660.37706 636.69254 642.29633 619.31340 613.27392 593.91615 533.90146 515.34806 456.47556 445.87750 472.41854 512.93228 533.41135 499.34870 436.69342 342.54306 279.51437 179.28699 101.65975 12.75947 4.57402
6.53665 7.12655 103.02653 206.52860 273.55336 332.94137 374.60949 456.51946 515.98541 574.18578 675.67892 723.42710 758.21926 766.88138 787.02270 786.02229 754.48521 773.45222 785.04246 782.55927 821.57681 794.88398 780.08247 752.76831 784.59100 778.88386 762.56544 821.94232 861.66410 872.75383 844.67658 830.85690 810.83811 832.39786 863.26778 889.71204 870.31388 895.54960 910.23626 934.03332 955.68806 975.21761 974.19245 955.83127 955.58159 957.17765 957.02024 941.98148 922.20563 905.72141 891.34340 871.53732 882.02970 903.27163 939.74423 954.97840 967.83278 960.96222 935.61655 909.96824 906.87100 905.09276 929.26982 951.77617 963.26003 956.86374 929.54877 902.81358 862.25056 873.53665 904.55322 925.48464 941.47548 912.10090 916.96399 931.24907 961.53758 949.20021 953.24487 949.81475 934.55582 912.29000 926.25751 933.42720 932.98122 938.51873 965.90418 979.12360 985.53252 953.55869 918.72448 897.34294 837.82093 790.11827 766.86611 740.75172 731.58799 725.24270 763.57328 819.47361 815.42609 778.21109 746.51532 782.64329 780.35226 816.11047 857.52578 861.78068 806.89881 811.85545 821.39789 844.02617 873.29415 905.79610 899.00436 868.53686 897.01719 914.79117 955.36402 973.51825 981.44469 974.18447 963.10202 945.39942 937.34005 938.32274 930.91434 936.02994 921.90854 896.61161 897.53930 918.18765 962.42333 971.80242 976.68410 953.64618 943.05714 923.35843 891.91469 869.46385 877.97441 864.81776 844.19643 842.95326 852.25060 870.27619 918.62131 930.84469 929.55435 929.42526 928.44192 894.88186 872.20448 872.61789 881.18758 911.34176 950.13817 973.94810 979.71819 958.41178 933.42583 921.46512 892.54754 853.95501 874.55326 853.54641 842.31325 832.52581 830.30044 835.54572 788.56947 753.20341 774.77928 826.27289 809.43641 756.34594 736.82913 733.22716 766.62364 776.44971 773.29433 771.81280 743.94148 715.90672 697.40877 704.76254 679.83316 647.39984 607.54195 583.41678 571.98569 562.72541 566.69082 584.30533 581.46472 527.01871 451.30651 348.49455 288.60820 182.59883 94.38849 12.92870 10.27344
6.97443 10.88521 147.75346 219.34668 324.32022 418.08911 470.70659 517.80544 577.17497 657.42758 677.50973 690.57914 690.54953 734.55340 753.49726 719.50237 697.02491 689.28743 733.29471 747.38241 763.03882 745.12114 695.85901 681.86000 703.22726 718.23082 726.97782 805.27797 844.15722 831.66103 799.18302 768.38085 771.19317 821.39693 838.71956 824.43068 835.10582 863.54302 898.61943 929.05941 951.93002 967.47877 975.43847 981.92855 972.39308 966.37108 975.19621 962.76288 949.10123 927.02305 903.49850 893.54716 907.68419 934.48166 940.92584 966.21386 967.57091 974.46008 937.12436 947.88787 939.89074 931.57502 940.08410 958.79606 975.19984 963.11103 945.46285 929.22516 882.93397 888.89824 920.64825 948.09439 960.15380 950.30772 943.74030 961.26280 967.74705 961.57356 956.26223 966.83611 956.56186 932.08405 943.97751 964.45513 944.54566 956.60087 970.52113 985.04160 976.48795 959.17861 931.85120 893.64229 850.56592 822.21520 787.55537 784.26210 786.07759 766.30979 778.26022 822.64305 825.98681 805.76609 778.01674 827.62116 845.38019 853.71991 866.61150 889.98393 857.03607 855.67950 885.12206 883.10720 891.80064 926.50899 924.27224 906.85212 908.57701 936.38213 974.19980 979.36361 987.68254 983.80521 976.58034 958.79530 954.59293 962.14177 958.54925 955.43875 932.16422 917.09876 918.09039 931.73581 962.32585 980.81121 986.01865 974.54882 955.02688 929.21883 910.17374 898.13068 905.70249 899.38015 875.05574 881.24978 880.74022 894.20093 934.65885 949.25615 952.43952 951.63021 945.89011 926.59174 908.40336 908.98085 916.98310 924.05143 960.64871 971.84004 968.90024 955.15903 935.39365 918.15567 853.92430 828.77002 795.83490 810.21968 801.33744 769.58463 800.88641 809.53538 762.28199 722.48185 715.27509 774.98179 756.64547 729.94371 660.25428 656.13828 699.07293 735.23489 770.59994 770.34465 768.89058 768.24012 765.79231 758.34739 750.27064 721.43866 674.71886 649.98519 612.73546 603.68346 589.97310 589.93498 581.50530 535.44847 467.02320 385.22795 308.76098 211.79753 109.70070 10.93550 13.96520
10.06421 14.46865 106.67698 229.14907 333.77901 436.79322 491.97463 548.29331 592.98281 642.74320 651.92855 643.59862 645.73795 663.89812 681.13964 654.25193 612.91170 630.54953 652.64964 660.67921 677.29008 703.41405 641.27730 603.42283 667.81246 651.21994 717.69676 765.51859 813.38387 771.14924 737.31114 726.13809 774.60144 799.06455 803.72193 796.89722 844.23006 876.48887 892.99741 908.10826 944.61657 959.94930 976.06202 978.37926 991.86285 986.53992 983.54576 979.43435 966.14559 953.38832 928.52140 936.67973 932.07927 951.25527 965.45900 977.96577 982.14353 977.62465 961.41968 968.87194 957.66892 949.18815 950.01752 974.42999 981.05372 970.40406 951.21177 930.53517 902.05717 901.80995 938.21990 955.42596 965.01588 963.31324 965.81344 972.71002 981.92683 972.11147 984.01878 981.59733 966.77611 966.30484 967.39517 970.17130 970.25042 977.35998 983.38395 989.50551 982.64788 953.97590 932.73883 895.86558 881.74587 869.92653 842.81650 834.31392 815.79708 794.19761 823.25787 850.63162 869.03711 848.49172 828.29861 866.83786 890.12880 899.54079 894.52893 903.52047 910.41762 894.68687 916.86978 912.70299 912.86595 943.17822 950.51441 943.85030 923.71735 943.77630 978.49618 977.41929 990.57770 997.92682 988.42808 979.59115 974.78087 977.88813 966.02527 968.51664 951.17002 952.00179 951.87175 945.11437 968.63238 990.41753 992.26267 973.51155 966.42892 942.10884 940.56755 924.43177 930.47934 920.45367 904.42624 894.85333 914.24642 922.01105 949.73201 959.25139 958.60530 970.13959 963.81657 949.88226 943.06170 928.94821 940.23872 948.83918 973.54399 970.80918 961.91408 944.06969 915.08910 894.82846 854.50657 798.03897 773.94105 765.70911 757.96486 727.48368 731.13168 755.48219 725.96346 669.85986 669.31854 697.20096 708.39854 673.61255 611.86793 600.04705 631.17038 695.19825 717.35535 747.53480 740.84565 743.68421 747.45011 759.69075 763.31930 726.65783 692.37846 654.58542 622.78019 572.49914 551.16207 564.08000 515.96185 511.78113 461.73970 392.07177 319.36089 197.23608 122.06861 7.40755 13.92794
13.85320 11.00343 86.80667 220.99068 308.94102 391.86280 428.30448 492.03588 575.54498 591.95577 574.47629 550.20651 521.45788 588.75182 610.81681 596.62552 528.08337 543.64763 537.23420 584.28989 624.28294 613.19473 565.97907 561.93237 613.38206 634.61399 702.03986 735.81915 747.18425 735.82251 680.74285 723.40033 734.44880 748.67966 733.57501 789.36792 805.87916 833.32202 871.97211 910.79582 938.57651 960.42323 974.93115 980.00703 991.81815 995.28162 995.98517 988.59087 979.04310 969.85921 958.62926 965.61119 957.85134 963.23476 978.34446 990.19294 989.40313 981.73271 979.94248 982.42962 980.98322 969.94228 974.39978 984.13102 986.27093 975.19788 959.85316 946.17431 923.17905 914.20599 948.80047 970.33709 980.48185 982.75466 984.22854 987.60179 988.55497 988.11474 990.97286 984.89940 974.74311 976.82800 981.56367 985.18214 990.79530 985.10602 991.36035 989.14026 978.66981 966.19842 948.25992 925.71905 910.96558 892.71880 873.82814 856.17746 853.58233 820.22785 841.78460 885.72214 898.89605 883.63331 850.42660 889.52927 919.16401 921.79936 924.48847 923.38414 920.59027 932.73204 944.25415 949.28775 950.30771 952.53192 969.61102 970.76071 958.31994 964.68798 980.17176 988.55182 995.92010 997.21568 998.94427 996.60776 988.17886 995.14264 983.74268 983.92700 980.46498 972.37981 971.11646 968.65775 980.51952 986.09459 997.54085 990.60328 978.24655 965.70198 957.58479 950.54648 960.89336 945.18392 937.78142 925.00409 944.25992 954.22403 968.80066 969.44067 972.70100 983.54849 981.37398 971.38133 961.90544 949.93517 957.50255 973.70353 971.64279 966.19258 945.06252 925.53225 891.83448 866.28869 835.62707 797.49802 740.63638 701.87168 699.90586 685.86367 680.54404 695.33905 700.44387 632.58459 608.47859 656.85773 635.41520 612.52981 556.36744 538.03384 604.71471 653.79299 655.23519 685.41959 667.54453 656.79654 683.63563 700.32623 719.21271 661.50505 638.69341 565.30293 543.91015 495.01433 487.41158 463.28668 452.38969 413.75360 355.19132 356.51539 281.44876 189.66333 113.58191 8.75618 8.46602
13.80168 13.85229 89.34838 190.16645 226.81596 332.22498 390.50536 460.07774 505.77299 531.90446 507.93990 457.59853 455.62628 508.66206 572.43805 560.83641 515.04663 457.34566 479.60730 509.08413 561.44992 528.46191 485.62970 501.53271 563.77808 644.80971 679.14239 670.04573 668.06066 644.72081 655.13507 682.72604 664.38129 691.70428 724.16209 768.39656 807.20606 846.53652 899.37363 924.92522 943.47148 964.60942 980.70472 978.54168 986.16009 989.72599 993.13614 991.84850 991.72073 980.23981 976.66384 977.77745 979.09184 973.48002 989.59114 993.70990 989.29388 993.92965 992.69200 996.80317 985.75336 990.09300 990.57951 986.63528 992.62126 980.75593 965.31641 955.69280 938.47489 936.83704 950.99476 977.82877 989.06059 987.26427 989.08625 988.70149 994.43171 995.19809 997.77188 998.45174 986.66073 994.42583 986.28436 994.88774 985.80395 995.45170 994.83113 991.87187 984.57836 980.41447 973.10591 961.06827 941.95042 930.66505 915.16960 891.16551 873.28674 853.22492 870.08354 904.73330 925.10218 908.91569 886.80227 911.81196 932.68920 955.77666 948.26628 956.06934 949.99820 958.37183 970.97637 967.93236 969.39464 970.38800 974.76968 975.80159 983.60516 974.37003 987.55368 995.47444 992.64060 996.39348 1002.96625 1000.37529 997.30659 995.10156 990.40477 989.88231 982.59085 979.77466 986.68881 986.75259 988.49286 990.42474 998.74067 990.06509 984.39238 977.82067 973.64309 972.39763 972.87063 950.32841 955.00403 956.97454 962.98805 969.36656 988.35213 980.09838 987.74956 986.09010 988.12860 983.40119 972.11709 976.79449 977.10656 978.93916 968.50856 953.46739 928.59794 898.43176 865.77511 844.24902 794.77503 780.41085 725.61167 682.58349 638.16000 629.74601 622.13049 637.64785 644.90877 583.89434 543.56181 539.35118 569.59848 537.66048 483.41740 478.21173 530.03464 565.37702 584.66825 602.96513 600.94827 591.53445 579.78030 637.05159 664.26834 645.13290 594.52530 516.50757 475.75621 410.95733 414.83448 368.82090 362.17202 300.51128 257.22048 277.16666 230.48849 162.88929 86.92099 8.78609 7.05579
13.44278 13.61087 86.81407 150.25853 199.63325 277.97300 338.08625 377.83236 399.46471 446.94077 405.03891 356.05999 392.69675 455.88974 495.59989 472.74836 429.38488 396.61670 434.28742 479.57702 488.32888 429.93668 442.81700 509.56664 575.89170 601.18704 620.50182 567.61487 569.03334 592.25428 603.91406 616.55597 640.87416 687.33968 737.48343 798.91497 835.67494 859.79764 905.80508 924.79985 942.05217 940.22827 956.62649 954.36554 974.20125 978.45062 985.48346 991.77709 989.87079 992.48936 989.06528 992.73899 994.72119 995.53302 997.40192 991.81898 998.14127 994.08555 992.52056 984.94939 986.81258 984.19489 987.76615 995.63446 987.40742 989.93909 972.39461 969.16748 950.59365 957.85584 970.65505 979.01462 995.70960 994.40601 994.31569 992.88299 998.53516 996.41830 998.35879 1002.59582 991.87982 995.14774 992.48694 988.71261 984.89079 975.07396 984.56684 988.18999 992.39470 987.72450 984.87845 970.19321 969.61291 955.91836 930.97706 918.60535 904.42674 890.47478 888.80356 919.90426 948.24968 942.57132 925.71768 911.46237 944.95569 968.14343 976.14943 966.24592 976.96867 974.09315 972.24364 977.01891 964.11188 971.84945 979.54004 978.27976 986.30927 984.01558 988.20834 987.02260 990.95748 989.60022 987.12612 993.25981 990.70390 999.38421 1001.74762 998.52690 999.29901 996.96099 994.14883 994.33740 998.47015 996.51182 1001.82388 994.57694 997.74713 990.75238 982.86731 986.66587 974.72387 979.16843 978.79603 974.93530 975.01689 980.34810 988.95193 994.41461 995.60854 991.03038 993.30394 990.50387 987.64837 987.84700 980.49782 985.93317 978.29354 957.83684 949.16612 916.33240 894.87320 857.85202 805.61119 762.90726 720.44628 677.70112 630.90756 613.47191 586.78965 579.85853 552.10095 541.62373 502.36827 473.36989 471.50504 439.33648 397.49169 426.56647 474.76969 503.04004 543.11079 539.68049 510.40928 499.73284 527.45433 546.87780 605.34095 592.60279 515.72662 456.35312 419.98193 371.25607 311.42380 250.06809 237.26309 216.53806 181.09138 169.70434 149.40584 115.10816 46.08595 9.55007 5.39510
13.36506 4.85654 64.46260 99.46927 149.81234 201.05229 238.45010 327.02189 333.71953 363.18231 317.13175 293.45164 334.97358 411.12037 448.95610 430.30368 392.58562 360.28690 368.76826 436.40923 439.83783 403.28859 424.81914 504.52159 532.49967 552.84555 570.19549 530.56673 516.66275 584.22842 589.28175 629.97272 696.01810 736.64541 777.92913 829.72706 864.18027 880.74196 893.11847 903.12972 905.59307 912.91955 930.48147 945.28813 951.19598 957.75369 970.48172 970.81202 984.77115 998.02091 1000.15892 998.35076 995.68680 998.90249 990.92874 987.99895 981.98076 978.10752 984.52360 979.73863 967.74802 964.30786 973.87545 987.58180 990.84324 1000.49408 990.36698 973.51346 976.65008 974.85892 986.49855 990.41265 992.36707 1001.00316 996.27264 998.02452 993.42006 990.66409 992.62354 991.74216 996.12392 992.19023 994.07999 978.63955 974.95613 951.40271 965.53822 973.89340 979.90516 981.50950 990.07773 983.13154 981.91135 975.93012 954.31831 950.48708 943.14938 930.40154 920.88870 936.60666 957.03941 961.82852 953.15056 937.66269 953.52478 972.52517 976.90330 987.80143 985.39426 980.03618 973.78105 968.36237 961.62408 960.12086 965.38864 974.34811 981.42485 985.67988 979.59216 976.30806 974.95876 984.39962 988.19905 973.63590 987.71287 995.17471 996.00877 995.47158 997.50953 999.16276 1003.39628 999.48021 1001.47058 999.23034 995.59178 987.46979 988.96232 991.93200 995.69551 995.34684 993.61295 989.71406 987.24057 994.37303 987.12489 992.04152 996.57247 1004.05950 998.28315 1001.94365 1004.21934 1002.71768 999.53007 996.94523 990.92524 989.96600 972.73262 949.29164 932.51981 908.38110 880.10229 837.03910 781.92557 761.71115 727.55540 732.21994 673.68428 640.67359 621.63787 582.88344 576.09742 577.65081 537.37995 488.49670 478.28073 455.43336 413.64486 392.62148 376.69839 402.20983 473.82643 486.87177 442.35155 454.61003 478.03804 499.12475 553.88098 539.93638 477.98682 403.80619 346.85003 277.66246 217.72289 209.99177 175.82526 141.11685 111.58403 88.44971 95.54882 105.68038 70.87988 11.17894 8.38497
6.43135 12.43168 45.92369 69.40280 91.54318 121.14620 167.49319 207.60842 241.46635 272.64698 239.92467 225.31540 310.92538 358.52753 384.72638 383.01234 330.65105 299.41509 345.73002 358.98720 351.07689 340.91330 409.30933 398.43955 432.17695 463.70559 457.35160 487.63955 554.81794 613.01620 673.81303 714.29340 744.24537 776.23587 797.90747 829.74048 835.70705 854.50899 845.53655 844.76030 858.33781 880.42385 889.97413 928.34097 929.21682 945.26931 952.22287 960.52869 975.86088 993.57424 995.53734 1005.82015 997.94525 998.43654 992.73458 988.70914 973.36393 972.72285 972.19870 949.87193 948.19010 945.25671 963.00113 976.65748 985.08214 996.08423 992.80455 990.74383 987.84287 992.19901 995.72552 998.04014 994.60547 997.55743 991.14010 993.92640 983.31200 979.93790 972.17716 982.36920 984.97259 989.08144 973.96417 962.51791 948.22133 938.39115 933.65275 951.86014 960.71054 973.75023 978.56447 985.75859 990.31062 975.69498 979.50480 961.90964 957.72554 951.40300 941.07599 954.27806 973.33295 974.95148 960.27290 961.93225 968.17785 982.15082 989.45234 989.99958 985.06982 975.00127 966.90284 952.36116 931.93131 930.83542 936.70336 963.85763 975.47452 969.63689 961.74622 955.10399 970.04986 967.88312 970.34744 969.11375 975.14462 993.95224 997.28970 993.78789 998.30724 999.65706 1001.51894 1008.61397 1002.72353 997.50930 988.22179 979.16306 984.96970 982.75753 984.42011 996.35479 990.00748 994.39414 994.08595 996.42913 995.55787 1001.92444 1003.56228 1008.54338 1001.52143 1001.29943 1005.71856 994.22400 997.11530 999.88476 985.37396 980.94914 960.82087 937.02099 919.74532 881.78923 845.87276 834.49484 837.67450 821.02844 800.90129 768.10762 745.08492 728.55476 691.53675 666.22695 640.81641 611.77957 556.71949 501.02342 462.20644 436.02517 404.09687 381.38792 361.93965 363.34959 390.39881 395.33961 366.76488 379.82677 374.20090 405.86148 461.75109 456.43355 394.48287 352.47680 291.15093 255.34573 192.01949 155.50567 119.50572 161.05654 153.02974 171.88688 198.36594 149.04421 110.28688 18.42769 11.01502
10.73146 14.23837 90.76933 140.52538 112.46064 73.88051 98.53008 113.87168 170.33167 192.32967 154.87257 190.67714 246.88747 257.93515 291.19617 312.82716 266.38623 271.37754 305.04828 285.49424 311.72509 330.18324 361.56984 385.30944 430.47700 459.45908 508.79096 549.01792 619.85449 657.13710 695.85948 724.88018 751.84317 774.00777 779.07111 793.34293 797.24606 792.36304 801.15295 803.85750 826.77944 857.91257 889.74151 905.50329 902.78824 908.65090 938.86316 961.74590 978.35167 986.20996 999.21849 1001.65287 998.76584 993.18133 994.52313 980.72572 963.61950 946.40622 947.72500 940.32576 914.01462 920.33389 936.81448 964.70862 977.25957 985.25351 986.97955 999.49246 996.80611 993.30094 998.73644 997.00925 991.67408 1000.49062 990.26176 979.08216 964.28256 966.99960 960.12202 962.56647 977.51534 972.39636 968.86618 948.49562 930.24628 904.49790 904.70849 931.15586 942.78014 946.06980 964.70202 979.10196 993.48278 990.85027 993.72253 990.91358 980.74161 978.54748 979.36773 983.03067 979.66306 981.45021 982.69210 981.06308 985.03486 987.88835 992.80233 979.11978 971.05081 950.24723 939.75852 924.16492 904.41211 894.30801 917.70775 945.89793 956.63723 951.76494 947.12342 928.02962 951.02353 950.45101 933.70447 958.23157 970.01378 988.71210 984.88243 992.28194 986.81059 992.90259 993.42114 990.85083 989.58343 991.16286 978.35079 962.35448 964.43612 975.46704 974.48168 973.22831 980.40847 986.63086 989.94185 997.56213 998.18271 1010.25448 1004.30729 999.53578 1005.38781 990.75915 996.62986 996.77542 996.91392 988.29111 990.27892 974.13649 950.66658 929.56536 913.04222 906.69071 890.74349 887.80756 864.22701 857.76183 845.07416 813.56268 784.94588 756.22690 724.49185 669.46541 637.04614 620.37920 536.61141 497.10844 530.07548 530.57329 489.74387 472.60819 424.45611 387.49121 335.98208 330.25529 301.30318 307.63180 321.52244 334.41721 371.94060 356.46488 336.12127 303.60531 220.56000 190.96551 167.07989 177.36649 237.07047 239.81159 284.80949 274.05185 273.64091 208.54983 126.62073 10.64170 13.44517
7.90498 9.87097 109.85010 176.97239 229.83166 188.56481 175.88706 174.31883 160.83924 140.86352 153.01269 168.72904 173.89279 180.64865 233.19460 227.73136 214.86006 233.47283 254.04088 308.99535 377.50937 400.53516 429.22350 439.70070 436.94574 484.42965 511.14978 569.55437 609.15093 639.55991 661.40072 684.98665 681.81802 687.16222 700.63642 714.62813 723.80646 727.17761 743.66573 761.40510 798.29106 838.66424 868.31940 867.83978 884.17551 899.34267 944.38089 954.99475 970.81490 987.69124 992.48660 990.43624 980.14678 985.61836 983.22239 971.88924 949.09682 930.27291 927.40270 906.77722 895.72190 905.83063 908.38593 956.62980 966.15312 987.40835 995.76269 998.40211 999.68508 993.55836 999.36110 988.45639 982.79068 981.43621 981.65074 970.12151 954.70105 940.00513 939.09823 940.71935 960.92148 956.68192 945.10478 924.84505 915.88053 872.60051 875.21125 894.80139 908.36718 914.39820 941.44571 966.70801 984.35820 999.22888 996.85243 994.75098 990.80453 985.36927 987.46300 997.61101 995.84986 995.23683 995.20515 993.62303 989.91916 988.68831 986.53532 990.03699 967.84902 920.66326 905.01605 895.93560 861.49749 862.01575 911.45636 930.88223 947.44784 946.17137 927.76076 908.49399 920.00193 914.39098 907.05004 942.73364 959.06740 974.38751 973.41869 981.84345 980.29632 990.05194 997.17404 990.75541 978.27179 964.42791 965.43114 950.16905 940.73025 950.92172 957.42235 956.14264 965.64137 963.22245 973.44727 982.59814 985.00695 996.69299 1001.84853 995.40581 987.49308 980.25320 984.36314 993.44876 996.61450 990.47377 992.86839 982.87415 962.96526 954.18916 936.79169 929.49634 922.99505 919.46588 904.98262 884.01609 840.59070 810.96006 771.52915 749.36259 703.59053 652.51109 621.24868 579.18795 571.11513 611.38218 595.71902 592.79956 574.27178 535.93433 463.76208 399.70343 374.04334 368.70201 358.44338 330.54105 291.49356 261.90058 296.77120 285.60303 275.80604 208.27853 175.55008 184.44638 189.61581 251.78735 291.59566 337.71284 378.57002 350.17539 306.33398 202.48588 130.05354 8.17069 1.74611
5.80240 9.53451 108.44274 182.28389 282.64604 310.58950 323.42478 291.53025 260.21003 250.32886 246.61522 217.62609 236.98045 259.82517 285.42952 233.60482 212.54637 257.19257 306.13797 334.37068 370.77553 403.06701 398.66007 380.74518 374.04780 421.31908 449.20580 515.88871 568.72905 550.22377 587.91912 595.02519 600.63307 645.31696 639.95480 640.97057 677.39631 699.14707 704.86829 734.45101 775.95253 802.33717 813.76118 827.93729 862.89395 901.56889 930.29249 943.58973 975.46757 984.30351 988.01152 976.88919 972.00126 964.53802 974.51339 959.60218 947.45589 925.63820 905.98314 888.73088 857.83875 884.42719 919.96426 951.29914 952.47621 984.60591 985.57675 990.24179 984.05073 999.27676 993.94235 981.17576 969.77083 957.77360 963.01713 966.26584 946.94548 921.46908 916.14788 912.05727 931.37920 943.45675 933.67910 901.11966 885.64420 848.51535 835.60908 870.83794 893.10761 910.10718 938.43270 965.79690 987.48352 993.52751 998.56091 997.22683 999.37655 998.92448 991.48929 995.34604 997.11679 998.88236 997.24455 996.44974 997.41399 990.24490 983.76091 973.52983 960.93835 933.49944 894.98916 859.37700 821.33109 840.56300 869.50408 926.74337 933.71152 922.26564 895.18617 873.97631 900.94955 881.67416 901.89224 931.98697 948.33077 957.04286 956.68917 968.29151 971.78708 984.44189 992.62419 978.87371 969.65188 957.09892 946.03751 938.51133 922.54548 918.75022 930.62459 943.01912 943.25659 954.86580 957.63980 973.94576 984.88057 995.63533 992.18260 987.67792 981.56991 976.38048 968.90722 992.56324 984.89003 993.56515 995.81993 984.19380 968.28072 973.80074 963.45863 948.90481 935.47318 928.03496 906.76714 865.88427 817.85823 790.27119 750.65303 757.65077 721.30164 715.54876 692.16462 668.41347 651.63359 666.02833 682.06898 655.01711 619.95113 546.52446 464.50571 401.88218 409.81903 457.74362 471.97136 426.42873 365.12511 298.12234 251.65944 222.17942 204.72473 204.36231 249.89499 245.38305 270.94494 301.09960 395.04118 423.26328 441.75167 398.77385 315.01887 233.15871 103.68718 11.42294 3.80749
