4.52853 12.60892 76.37452 142.56348 216.72884 268.17280 365.56911 476.10526 524.28007 612.77073 637.32948 696.32297 742.17469 778.29720 794.52955 786.63097 788.79591 793.11648 817.09130 839.75376 861.44401 865.79286 858.81964 861.57151 859.87546 856.37179 867.55266 854.28483 882.18627 915.86925 918.54750 898.31094 896.65117 901.88272 897.65106 918.58522 931.00260 938.78889 955.49537 961.93677 956.75860 943.41204 926.80747 911.59757 905.90916 887.31101 909.17901 907.04215 885.52171 846.53087 829.51493 809.19407 835.45996 898.47658 935.48394 955.56995 962.70835 956.67501 927.11765 892.33852 862.96244 846.37027 902.37066 919.73998 937.51348 935.51788 904.03310 855.59262 821.47326 828.02817 869.17269 881.34779 862.79319 867.99034 872.97097 901.79486 931.57930 931.82539 892.62378 894.03272 871.17191 854.75416 885.65274 870.93368 906.95313 936.76484 965.27484 977.61031 977.16929 960.11338 938.27221 919.74148 896.74021 855.52590 802.38509 749.84489 677.37078 647.00614 659.34863 747.27515 762.17754 744.85065 683.24503 663.99170 734.60125 788.82916 818.81117 802.24034 743.68242 739.52306 767.39311 817.32969 857.59102 868.88659 833.35086 813.89550 855.02079 869.27101 935.01774 953.26575 964.69197 956.80426 928.04407 902.96793 882.42274 895.62164 899.84469 876.27020 858.00904 839.30443 861.83373 899.41776 921.63205 954.63399 955.45645 941.51460 917.22636 873.07710 837.20585 841.09834 818.19433 791.64260 763.28576 771.81960 815.94072 872.61456 898.47061 927.19282 919.08045 891.75529 900.57729 859.94699 822.38627 819.75987 863.65226 904.11910 933.47225 946.63699 967.23873 971.91234 968.68867 963.65301 954.14426 940.75125 942.63741 927.68979 911.00589 914.27598 910.46841 895.57131 895.59933 881.50536 888.01427 894.47203 877.86612 851.64072 845.37717 821.97559 798.50335 756.24898 731.61142 655.83394 597.19703 577.73848 547.25825 535.67726 549.04291 471.00722 436.02968 399.89310 348.75364 405.01420 387.65591 429.22808 493.63632 488.29544 464.78290 397.00844 325.06360 196.48085 130.80797 3.89473 16.89929
6.24776 5.76129 90.64504 146.06362 224.78384 282.90528 354.42061 417.27257 515.53278 611.72460 673.12716 715.64615 769.37531 789.97474 812.85222 813.72090 804.31978 813.60223 828.50521 845.90506 851.46259 844.54009 832.79359 818.65943 839.19414 827.96545 828.21391 815.59337 876.31865 894.59592 881.77690 880.97601 852.90371 852.24523 885.26822 909.03073 905.62343 916.86769 934.55879 958.42887 965.90077 970.41264 958.62551 936.14456 927.45292 923.38993 930.00341 933.20561 913.01017 878.25537 867.38572 858.30792 858.20031 881.70416 916.77975 952.65686 969.71546 951.47923 931.86981 890.50066 880.98760 872.21915 908.96515 941.96655 951.05061 944.44559 915.91847 878.67244 863.85224 849.93500 892.48332 905.80976 903.02142 887.77807 898.19061 926.08090 942.68303 948.40294 923.78427 913.76034 907.65788 891.60155 907.30192 906.61413 904.59760 941.54054 961.93014 975.51793 978.36545 957.77307 912.61539 899.26499 865.30549 835.49363 782.62272 727.22613 690.50945 670.56586 716.58238 790.22642 806.71249 751.34957 702.05413 723.65567 740.68087 794.69473 836.16435 830.28433 803.28654 759.89198 783.59421 818.05902 867.30992 886.91334 884.36936 848.72379 881.39737 905.01142 940.06117 960.93751 973.61817 962.59283 953.98104 928.57712 922.36990 924.58971 919.12633 903.56610 894.64476 865.88061 876.36083 927.67523 941.07795 968.86779 962.63306 949.88547 929.75866 891.58974 870.81598 845.60391 827.99867 819.14082 805.96170 799.82589 820.84280 870.58214 913.72912 932.09195 927.34252 909.93030 908.12996 862.12649 836.01107 849.19118 870.01786 896.95828 924.03527 956.54810 969.84703 967.78518 953.98079 946.25117 926.47686 905.83692 900.50267 904.42311 885.76383 860.61073 874.42132 847.86628 834.91203 841.94467 868.63613 864.04185 845.24030 819.20678 817.95244 792.92103 804.96967 788.61314 750.34763 705.41457 659.35375 639.64780 645.94758 618.87776 615.37297 590.92688 531.48564 514.47134 451.67957 442.87841 475.04264 512.41220 529.67739 488.58052 437.27048 332.79580 279.43467 177.17178 108.30127 8.85087 12.60460
4.71264 13.97729 100.40442 209.33933 270.74491 338.66158 384.05150 460.42030 517.68326 578.65624 671.38656 730.24428 756.49012 766.27664 785.23511 792.04522 759.30452 768.89568 791.43659 781.12761 817.22503 801.49580 780.94948 752.00153 780.92985 776.75278 771.67261 820.11312 852.75438 870.76328 844.72911 832.49966 816.08735 826.81045 865.64940 881.89729 874.63901 897.68704 913.25673 931.68840 958.22633 973.84558 973.06558 959.53556 960.70460 958.07335 947.85144 944.73139 919.09638 903.53578 893.42106 865.69099 884.47354 898.70840 930.18566 949.81622 974.11971 959.49896 930.23098 904.86452 906.10930 911.86887 924.79792 942.30225 963.80877 953.18846 929.96146 904.92931 863.17180 880.42245 904.08112 931.17800 937.14327 918.64833 918.61926 928.56314 962.60925 955.68896 948.04634 947.87495 928.48215 921.16507 920.70169 927.09994 929.85658 937.26720 965.63914 980.28988 982.33780 955.03335 921.67965 893.00638 836.76694 805.29732 767.20739 748.19507 734.11199 726.05670 768.21727 816.26830 822.87066 772.25302 744.62424 783.22876 784.41215 809.54096 855.93688 863.89881 806.15842 810.68064 820.12113 844.64282 873.69660 898.99620 902.29383 873.43088 897.92735 914.54371 946.67514 969.26063 986.52237 979.91223 960.61467 947.70464 939.09482 940.99722 936.92002 935.04827 919.63671 896.47557 896.37154 924.52578 958.11704 974.35776 976.67667 961.82224 950.69839 912.45797 892.93299 865.72168 873.09138 863.56182 842.03719 837.31642 855.69514 877.46938 917.98051 931.49119 928.01722 931.96442 929.78807 897.03564 874.24277 868.78318 883.06819 920.20912 948.19511 967.51250 971.84737 961.76050 934.72836 921.47168 895.46670 862.11133 867.09744 852.59335 846.14307 842.28015 838.83977 831.77600 794.26589 754.69010 772.97229 825.58233 808.47527 753.99578 738.16733 738.92691 769.81500 776.69982 772.88120 775.47903 738.43691 721.34158 700.76423 701.98093 676.91518 654.95144 607.39963 584.41635 570.48368 564.30733 570.01608 586.93889 577.70891 527.68681 447.38468 351.00426 286.82158 184.67803 90.22940 4.98963 14.56976
9.29366 3.32443 149.62396 219.68421 320.51755 414.92950 473.77693 519.63075 573.98680 649.12497 670.45944 695.13358 692.18585 728.84494 748.66855 714.69870 690.55240 698.17609 730.05702 739.42699 760.93896 750.37483 701.33136 690.22863 704.81840 715.27921 726.43842 809.93974 835.11114 832.00946 805.46266 767.99987 771.28725 821.41411 849.47521 826.80895 840.52393 865.37114 897.87222 928.99877 950.18070 967.56072 973.88613 980.82000 973.76694 971.75878 976.32311 962.79811 951.19793 930.28630 903.25599 898.93524 913.43700 937.47848 944.01996 971.09253 973.73872 962.30692 939.13908 943.87996 932.46567 931.77841 934.19487 956.91930 965.64422 969.69704 944.31792 925.49694 880.73379 889.20702 923.00216 955.81477 955.45994 945.51137 945.35832 961.19882 971.91460 965.32359 960.25616 972.85747 961.30763 938.84995 938.90596 962.67629 946.45816 955.13208 972.26212 982.71796 974.22302 955.00078 926.32973 895.07799 854.30160 824.09485 797.18083 788.49648 782.00187 756.64453 775.76837 831.01749 829.79510 806.91024 779.68476 817.98421 845.57960 852.69782 857.40381 883.16289 858.65759 852.83573 889.81564 878.24140 891.18518 918.73027 920.60486 912.58316 914.31588 939.04916 969.65864 979.42175 984.04992 986.26814 976.81552 961.48992 955.22297 958.06543 959.27126 953.39696 926.24650 913.24798 916.25911 931.11988 957.40425 978.59668 986.18930 974.85845 954.15584 935.95773 913.25818 895.10563 902.42062 906.06966 874.67629 880.68719 879.11536 891.44131 932.56561 948.40291 951.97281 952.91223 946.44302 924.89226 912.87825 904.34032 922.36546 925.82576 958.08714 972.08196 980.61814 959.43646 941.99130 913.55262 849.88082 834.39443 807.36781 811.45805 791.52493 772.26705 800.39842 807.94757 751.61312 723.93578 717.73357 773.96044 753.36573 730.99467 653.04043 657.97703 697.19602 732.28298 767.32481 773.17367 773.52311 773.50190 768.23256 758.10020 753.37820 716.31332 673.17044 645.47680 613.13599 608.41459 597.29548 592.37949 578.85626 534.45348 461.53861 386.16590 315.69725 214.80102 113.89794 11.29260 7.90241
12.80345 10.13065 106.80497 226.91026 334.68247 432.39421 483.23126 548.40067 590.01058 639.91828 653.92180 641.32245 637.09782 662.17481 684.85720 649.42956 614.54360 631.60912 652.05073 659.06048 675.66025 692.47734 637.89993 605.65718 666.08387 655.30939 723.25016 767.20754 809.81174 765.07658 746.96282 723.33437 777.73045 793.84505 802.94443 796.92525 844.23187 871.93991 895.30902 912.44201 943.46384 961.29151 974.34333 990.06588 979.81534 985.47943 986.44145 979.98894 965.17265 953.56351 933.44846 935.09725 933.67879 940.10362 964.28080 976.46366 982.20986 975.62454 962.51391 960.20236 957.94398 958.84684 951.67985 970.72001 979.44144 974.33410 950.24509 930.46149 908.27208 901.96601 940.78856 956.29105 970.34149 964.58707 959.58773 978.29135 977.88953 980.40532 983.48341 981.80640 966.35069 953.44634 965.57888 973.06549 974.06727 973.35143 981.93058 988.78523 984.23205 960.54828 926.82770 901.48103 884.97780 868.18869 846.09180 839.32946 816.36811 791.10578 820.61041 853.13400 871.32267 855.31073 827.28551 871.08255 886.63790 892.77527 896.85431 912.63556 907.88357 900.30284 919.57676 916.41911 912.94483 938.64565 952.37041 941.35619 928.00225 943.11294 975.15693 983.96649 990.15996 995.02927 992.23907 978.56797 977.36753 976.97570 978.39392 972.39973 958.28265 946.25430 949.82886 949.07660 967.87899 987.07110 985.21990 971.42559 961.48846 945.48918 938.27197 930.33755 932.91438 927.38836 904.86813 897.98732 912.57592 937.79432 951.57608 956.38070 971.81251 966.83133 959.95394 945.49526 943.02339 929.56555 938.41822 950.05628 972.51156 968.31382 963.54250 942.17905 918.76120 897.88116 854.53153 799.46320 765.32145 762.07023 770.44805 725.00663 729.19851 757.96942 730.13771 673.08021 672.36160 693.75113 716.13677 678.96105 609.94263 599.98619 634.10425 699.93792 717.06526 749.44707 739.95608 736.10063 744.46206 760.12326 760.61986 728.22051 679.67345 655.14735 619.80571 578.42489 547.17612 562.64223 513.38247 510.36576 459.27621 389.64552 312.11567 199.51478 123.80089 8.66980 9.60590
10.82613 14.24862 86.69615 225.50273 309.80892 387.43197 437.31678 494.54536 568.75183 600.94836 573.56294 556.23980 536.47870 584.52553 618.89995 593.60744 529.22175 539.85731 536.86661 581.15711 621.19797 609.11027 565.92100 561.88392 608.49813 637.27025 707.64558 729.33422 749.99566 738.88169 679.23629 720.56801 731.87290 744.30795 733.03235 795.65066 817.80459 840.35290 875.22612 912.25079 937.11362 958.14268 974.85625 981.38937 992.73029 993.53282 994.87606 983.52005 980.49899 961.79498 949.32868 964.19955 961.54026 959.33819 980.98496 979.60775 992.68926 979.15961 980.11777 976.70533 979.88595 968.39556 978.30830 974.05831 988.61738 980.65248 955.10244 945.26980 926.73179 914.56902 941.65918 970.90515 983.13850 980.82039 978.97201 988.60082 992.59063 993.39944 989.41759 990.10677 976.83284 977.64834 983.95343 985.20494 988.89873 985.53992 987.13762 993.19939 991.23370 970.64564 955.42360 930.37740 908.79943 895.48064 879.95649 864.28050 851.49084 814.59953 844.74621 886.60830 899.15292 880.12952 853.53359 900.03717 917.44649 918.40556 920.41097 930.25752 923.88373 932.42575 933.88344 948.41430 950.47185 958.43362 970.78742 954.94925 955.44703 960.21679 978.19147 984.24974 994.58072 991.20520 998.64872 993.27790 986.21233 984.68949 987.17569 985.43935 971.13377 970.35983 971.35709 963.83161 975.59942 992.13464 993.70385 991.32096 975.77507 963.66297 954.50749 948.12445 955.50970 944.92476 928.54925 921.74169 936.14451 954.85112 966.05748 963.29202 967.43803 980.36376 976.24985 971.09337 956.06278 950.80988 961.01411 967.77444 966.90614 959.66799 942.43441 920.56326 895.71873 873.91430 835.53990 790.83407 733.61895 714.44410 700.20039 684.97865 681.82176 695.09984 690.78868 632.84338 609.00644 654.52011 627.23834 616.28858 545.53070 537.55543 608.47019 650.77663 658.36084 680.18871 671.59396 653.15653 688.48206 699.35783 720.02123 667.39429 632.27832 565.15221 547.02158 503.97385 486.33465 469.73595 440.31803 415.61217 357.29031 352.17915 286.06566 184.37671 110.45996 14.64675 11.90797
11.35590 9.39063 83.95995 184.83652 227.75231 336.56147 389.45598 467.86638 509.84876 532.86304 501.98498 461.73207 453.54978 520.02088 579.09619 553.56883 516.88543 448.37493 485.44821 509.90797 563.30164 519.62818 480.46942 494.06316 561.92872 645.13798 673.93107 675.50234 672.62797 645.23472 661.61770 690.01850 667.78883 691.81190 718.26829 768.08791 802.70787 845.95772 896.98046 920.98117 944.65355 966.66294 973.81957 976.69542 984.59419 990.06143 992.58659 993.15695 986.95738 975.80851 969.41672 972.86204 980.31585 978.67487 992.60275 994.91134 995.31551 993.97694 993.13718 991.54163 985.96022 991.56798 992.01470 988.32187 992.53803 990.17301 971.32842 962.80472 938.77110 938.69626 953.78224 970.59933 982.94476 994.59828 990.72957 997.31050 994.26825 995.15132 989.40544 996.96047 984.67577 988.54133 987.58103 988.22416 995.83183 989.95486 991.72330 992.66113 987.94596 980.57625 976.41414 963.00908 946.90220 934.24903 914.96624 895.10871 879.72611 860.15833 870.54856 907.56574 931.30852 912.24634 888.25050 906.51786 923.61696 952.72567 954.46060 955.26503 953.21214 964.16165 967.53221 966.72170 965.18671 970.54786 980.35724 979.79489 972.64917 976.67317 986.01647 997.58979 989.94425 995.31259 1001.08133 994.01608 993.26380 997.13696 998.09962 987.84007 982.63317 983.99399 987.64535 986.12066 995.31543 995.39087 996.50259 1003.22664 988.38052 975.71548 976.04729 971.75246 970.76009 959.68702 948.36997 953.20048 959.61321 969.36810 978.61797 980.65853 980.08837 986.49723 986.37576 983.43358 976.35175 971.69833 975.52634 988.99735 979.30911 959.19932 932.75053 898.06791 862.75913 839.76646 799.89906 777.63132 720.22475 681.30068 636.94835 628.04029 620.44694 631.17617 645.25730 577.34861 547.92165 536.41482 570.31651 537.34283 482.16979 474.34431 533.18201 558.92635 579.49129 611.56384 597.68926 592.27586 575.65858 639.36645 667.33972 649.51870 603.55877 519.80211 466.68933 404.96295 413.83555 368.41404 363.24579 294.35176 261.22860 273.05618 235.53029 167.48354 88.30004 7.79887 10.26296
16.77842 17.33804 87.25866 152.75466 200.32397 271.85598 337.26665 383.82428 399.19717 441.27558 409.31128 358.87798 393.32187 458.61951 492.20992 470.86555 430.28382 393.34546 434.03442 473.04610 480.49861 428.06791 441.14653 517.81759 585.63203 610.11896 616.90525 573.00613 580.32386 593.27549 606.64248 619.27026 643.42752 689.46090 736.93099 799.64612 836.61842 861.29233 906.74389 924.41004 942.55778 945.26290 953.59183 958.55394 974.26766 980.49774 984.89442 988.88548 988.80362 988.42371 986.36808 992.06404 994.01863 987.32495 997.89870 993.27209 991.62938 993.75138 988.24894 984.64585 989.12000 985.17726 990.30120 993.42855 995.50855 992.09678 981.40329 979.47917 956.20947 951.47262 975.57274 976.07907 991.22748 996.11736 995.38343 992.96233 995.96398 1000.45225 999.11904 996.51766 1000.89388 998.57019 996.73523 992.73776 981.53447 982.36879 982.02405 985.18013 988.25735 982.29645 984.54507 968.48529 967.79716 954.27140 933.18034 925.25858 905.81386 894.61986 895.06949 920.00273 941.01468 941.10953 919.72051 911.18520 949.90906 967.96819 975.02064 971.89215 970.67033 980.81384 975.49926 978.15171 971.51559 971.03193 982.03631 979.35805 981.85336 987.32141 988.74526 987.61600 991.51088 993.53253 985.89208 996.05666 992.11109 1001.96772 1002.72026 1003.07472 1001.71183 987.85738 992.66113 997.85613 995.72243 1004.64101 999.16628 999.05564 996.89712 986.44211 988.51538 986.54156 984.95629 971.27772 978.73863 973.99655 974.58738 981.02867 994.75441 994.46848 995.72612 994.13937 994.22206 991.08653 986.57987 987.85109 985.03253 983.45242 980.70026 959.62118 949.95476 921.24839 893.48067 849.50456 811.96146 766.33532 714.76921 674.22075 631.43718 607.73013 591.54447 577.61869 551.81239 545.00416 491.97813 467.08702 472.03628 441.99046 401.44656 422.96861 475.54172 507.84890 545.42310 543.29493 512.80470 496.81626 529.81541 553.07615 608.16770 592.02950 520.47905 459.59297 413.22578 364.89261 310.40654 247.98992 232.90281 216.00611 186.56971 166.29057 150.52097 110.40574 57.42640 4.39196 9.56870
13.15850 7.45988 59.20991 106.36479 152.67757 207.93912 237.82470 328.60869 340.03850 362.17649 314.99822 291.60678 337.39376 403.18413 451.59681 434.97582 393.90223 359.46107 371.39684 433.15972 444.16360 402.46799 427.59407 501.57175 542.81192 540.69226 568.56131 523.07896 518.33469 589.18745 590.24801 624.71224 694.35175 731.27317 771.69081 832.66362 855.57172 876.16401 889.50811 900.82559 911.59708 912.17572 926.03639 946.16639 953.13492 958.19860 970.14504 973.41521 984.26553 996.31650 994.68734 994.91698 1003.48253 1001.30987 998.07292 987.22471 989.20077 981.51022 977.57514 974.52878 963.83821 969.02183 976.48886 983.91261 991.29933 996.48413 990.94169 980.66400 969.49642 976.90937 985.67393 987.66227 993.68131 998.47865 1000.13441 991.90146 1005.24367 991.47032 989.69145 995.38578 996.49294 992.00125 994.49196 981.89656 968.73324 956.74506 968.54887 971.92223 985.54759 982.04205 985.42892 987.58387 982.93298 971.12361 952.49689 949.75303 945.99346 933.00192 924.26389 938.69568 963.68049 964.91139 950.73564 940.95088 954.88163 978.54777 986.30532 989.08610 984.59690 981.68068 977.40999 972.36901 962.08775 963.79682 963.81705 974.92682 987.41145 983.12941 979.52835 975.45857 976.47846 985.02127 983.80557 971.90322 987.12457 995.66366 998.90608 1002.86972 1003.17322 1002.80361 998.53059 996.57859 1001.41035 998.40448 996.43773 992.09902 985.27018 995.41947 993.45921 995.56035 991.68748 992.77510 992.68950 990.61946 990.62817 993.01263 993.92096 1000.89091 1000.01327 999.82012 999.15076 993.53198 995.89829 997.72261 997.70748 987.32734 979.01635 955.00778 935.83268 904.81523 872.58709 831.86400 774.19374 764.53827 724.89144 733.88796 675.41586 647.88437 624.66418 588.27319 570.73259 576.24356 548.66064 489.94340 472.51841 451.40509 413.85184 395.01961 373.16363 404.53844 482.54835 491.56990 445.54183 450.40002 473.57620 497.13059 549.45050 540.41242 476.41958 401.54929 345.94820 268.82173 222.23953 210.22641 177.98684 132.22535 107.28093 88.07699 98.37975 100.03927 62.32604 13.96314 5.88603
10.32316 10.98750 44.63481 73.41792 87.71758 123.62809 152.96078 206.26276 237.51193 274.97042 245.73302 216.93440 311.16059 361.95793 390.70535 384.65145 327.75437 301.34543 340.93990 360.80037 348.70117 338.30562 425.17076 400.60552 436.07444 461.05013 453.00465 480.74945 554.99557 617.36181 673.32720 711.81310 746.98140 777.42786 798.70902 829.37023 838.60465 859.68812 850.29612 841.17256 849.44383 882.76552 892.52141 927.91668 925.58794 951.97975 951.66092 967.23992 980.41894 992.03838 1000.50566 1005.07139 1002.64057 997.88375 991.62400 987.31701 976.87156 967.33666 970.30741 956.86501 947.88790 947.42142 962.56951 978.54690 985.80674 995.66571 998.89622 990.07885 993.67442 994.82261 994.17144 997.47538 1002.55433 994.51766 995.70649 988.50213 978.05865 976.47722 977.18226 981.12362 980.09357 987.74637 987.66898 965.10710 949.13665 930.03075 932.60978 949.58617 960.62929 975.76579 974.46914 985.51809 983.60953 982.25793 974.55519 970.30026 959.85674 956.00632 945.18345 961.15919 962.17113 972.55138 955.09362 961.45938 968.33400 979.00043 989.16099 981.79309 979.27759 972.15087 958.42956 943.41054 936.92167 934.65357 940.65416 955.61985 979.73193 965.02945 968.15271 953.46246 969.57519 966.42101 969.02995 970.66119 974.34886 987.95496 997.49772 995.39040 996.23535 1008.93812 1002.66157 1001.93253 999.34063 995.15127 988.47640 978.55785 978.81494 989.88169 991.81445 991.77712 997.23116 993.34897 996.92181 994.07919 1001.72124 999.33606 996.89722 1007.15408 1002.84064 1001.02946 998.15873 1003.80440 1003.20201 1000.98204 991.14167 983.55556 962.25147 931.36232 919.65864 865.73624 844.72697 834.33419 839.70370 825.58042 798.73828 774.93896 732.87172 731.53386 693.47036 659.21765 645.14058 614.73892 562.17920 505.72049 462.29658 436.09994 418.76411 375.84541 357.60502 372.18027 389.66624 397.58356 363.59875 376.20159 382.64545 402.86094 468.63260 456.19483 399.78027 351.08883 288.46345 253.55399 194.97559 162.46006 124.47116 164.13752 155.55326 176.87322 188.90101 150.83922 111.45684 10.67435 12.97402
10.35322 10.05622 80.40322 138.04584 119.10304 72.37876 96.70828 117.05982 172.33826 191.97614 155.97060 179.06946 247.81891 259.88824 291.60857 319.71404 260.12267 262.37858 301.55603 288.95019 305.28074 325.54638 362.66626 393.11797 428.75842 456.94986 511.43646 542.03366 619.57063 655.02767 694.66457 730.54649 750.45625 771.00700 775.41345 795.85945 798.89857 798.61738 799.15788 806.67950 825.32402 861.74158 884.90947 903.85660 900.97835 912.82010 938.31393 968.95148 980.00515 986.04092 994.18634 1006.53155 987.78987 993.23238 990.81492 974.20766 964.93312 945.99665 947.78191 944.93601 924.09691 918.92237 938.28084 962.72680 977.20298 984.97078 995.47447 1000.34209 994.27220 1000.52017 1001.19345 998.89075 990.55737 994.55795 991.71640 982.68114 962.85200 962.35504 969.54246 967.33554 976.23227 973.63951 964.64016 948.54382 935.87706 907.03730 906.19292 930.86543 942.48924 951.65433 966.84505 971.66808 994.88179 989.71191 989.75942 986.08040 980.17696 976.55726 978.94176 984.17668 982.69307 977.48531 979.51089 982.40877 987.35756 986.29484 998.78138 978.32366 972.01989 947.10538 932.31133 931.44606 902.91053 893.18186 922.34743 941.85951 955.68704 951.99051 945.28552 931.26246 945.49937 943.60621 935.66362 959.57770 965.69236 974.94711 983.10624 990.35745 990.07969 989.95282 997.01052 991.13238 992.41046 986.82232 980.14801 964.64431 957.52945 968.86836 977.84418 982.32319 986.51756 979.02169 984.90469 995.87677 997.18705 1001.54198 1003.17769 1000.73159 996.23825 992.91627 998.61880 993.16871 1005.50667 998.03719 981.24236 980.87731 957.61176 921.55439 908.48880 911.80247 889.52576 888.62642 865.54218 863.45044 854.97000 820.25314 788.55143 752.69449 727.24692 662.64588 635.01131 622.12689 541.18696 499.25631 533.52074 528.99910 487.58915 468.31794 422.10151 381.61910 337.50756 329.10696 294.38207 308.44193 321.70722 336.68886 376.70119 352.12981 333.76416 307.26392 219.19987 193.45639 169.79426 183.66413 239.69067 243.49833 284.35517 268.53303 270.59611 198.97032 131.03568 11.61076 10.75119
9.18728 5.36223 105.96586 177.70126 234.10209 180.12616 174.91776 177.44032 148.31551 142.18270 154.70430 169.03034 177.77896 171.86879 234.19681 238.29671 216.54358 231.47761 255.42093 308.03048 377.76946 396.35582 423.92216 437.27707 430.08312 484.12331 507.64163 573.32371 608.93684 639.49961 662.28269 683.85897 678.67374 688.18771 696.63599 718.47874 718.72664 731.88615 743.96569 762.83946 797.85910 842.42706 865.35986 863.18766 883.18972 903.37233 935.71954 956.50121 971.85806 983.85561 991.01811 990.03661 987.57046 986.69847 984.03735 972.93757 953.98457 927.77731 922.19183 904.20106 888.10845 906.65476 921.95111 951.20382 971.80346 989.50748 994.05292 999.32052 999.26820 991.27422 994.03998 1001.01121 980.86795 981.35455 976.91825 965.88182 947.03132 937.28881 939.80740 935.80135 955.83508 953.90022 946.83481 929.42458 911.89131 875.17924 870.27268 902.08572 912.23387 922.16749 938.45439 963.96069 988.91694 994.16461 997.03634 992.26435 991.76334 989.90786 995.23295 988.17874 996.90124 992.49848 993.91809 987.26977 992.51692 994.92087 987.87549 978.82657 972.73406 926.95589 902.17014 897.97228 860.38549 862.40883 915.44252 937.30848 953.35829 943.65312 924.02937 901.36922 917.97167 916.75310 909.67783 943.18386 957.04781 970.49024 978.44688 975.93129 982.40376 993.25087 996.97315 988.83920 983.72456 974.33618 957.19459 953.79606 947.36171 949.16076 958.75097 960.20326 966.52271 963.82956 975.90641 979.16788 994.00932 995.78410 997.91812 997.37510 991.43145 987.59818 986.93070 991.85243 996.92754 991.00743 993.74145 978.50948 971.04813 949.60341 946.38562 937.10937 919.86129 913.41671 906.49483 879.08756 840.77834 812.68472 763.23685 748.90445 695.72452 647.92355 624.59960 582.16272 566.63284 606.24287 591.50145 595.76237 566.68599 532.52860 467.12843 395.46808 379.29334 374.16724 364.51083 327.48269 290.50027 261.33279 295.45197 281.72647 274.86406 203.78654 179.38454 181.49271 182.57360 249.54047 306.98967 335.14527 382.71174 351.60977 304.92925 202.70329 121.27825 9.79225 5.10311
12.56979 12.10162 108.13204 184.82579 277.78174 317.06571 314.48287 291.58507 260.67320 253.89902 257.30990 217.82180 231.23326 262.53329 286.36679 232.43190 212.55835 254.40392 307.20567 331.02342 369.90733 402.28724 392.33597 382.69010 376.94841 419.21841 446.89342 516.59626 563.60756 547.01492 583.43478 596.70429 605.70902 635.85516 635.60978 640.46429 672.30466 696.48513 701.66200 728.79426 782.52233 791.87608 814.63190 825.65309 861.08305 895.09070 921.04213 939.33973 975.42524 979.73672 985.40971 978.43200 975.02654 967.28559 967.41573 959.73817 943.27435 924.26503 907.82397 886.60022 858.65003 893.45462 910.70129 943.05707 950.73839 978.78293 986.67476 984.20528 991.52206 992.87151 993.67211 986.88452 975.92338 959.36421 963.24715 961.23458 943.36859 912.61466 921.70161 910.79069 933.24822 941.40916 941.76318 903.26375 880.43495 843.87200 841.12322 879.53970 884.48690 907.48215 940.33993 970.11483 982.93429 993.57712 999.80677 996.07731 997.18959 1001.40930 998.70741 997.62995 994.43288 997.66087 991.89844 998.81471 988.81811 987.53612 983.84059 976.41847 952.82628 937.46699 897.28302 854.16383 826.17480 841.31973 870.60143 926.29728 927.01224 915.24738 893.83904 882.86002 897.93181 883.10941 899.50243 926.45368 947.42636 955.36461 951.85411 966.33283 965.08170 989.49438 986.69980 975.88023 969.51961 959.19635 951.98542 939.70609 923.54286 918.94209 919.81003 939.73675 941.64994 952.12448 954.03954 967.86609 982.69858 996.34645 995.00341 986.22483 982.56432 973.71441 976.21133 985.89297 991.56138 989.69187 999.40880 985.73319 972.37352 974.85114 962.43118 950.14562 931.61705 919.95286 906.22210 865.80627 813.07845 786.02354 749.28264 758.82030 720.87503 716.18391 693.99835 669.83266 640.84987 666.37087 674.66236 654.47167 618.15531 546.47263 466.11375 408.71844 406.24135 456.46431 469.49184 430.14796 355.06610 303.16221 239.53866 230.92517 212.77849 204.50960 254.17260 252.89589 270.05667 302.19529 396.14317 425.04352 438.51809 398.05851 316.21430 226.58296 104.55311 16.06149 6.14086
10.95375 10.04304 104.13392 225.49276 308.93070 366.08783 380.78214 360.56568 361.40203 332.93173 377.32275 346.70641 303.84222 330.79223 384.69442 350.15934 250.31729 255.51264 286.73989 296.38968 326.36798 334.02521 342.92398 370.06086 435.72469 431.26312 462.38263 476.05663 476.15187 499.62906 540.89942 567.52741 589.15663 585.03241 599.52706 656.83728 731.07838 757.16207 759.97976 744.72570 743.14774 779.03271 797.53667 830.75854 869.43680 892.48485 908.13626 947.66991 969.06470 983.41662 984.53127 972.46734 947.71863 945.67711 966.11864 954.68872 922.38012 897.58907 868.97789 847.69713 827.07136 866.30389 909.59172 929.23989 942.35868 972.05768 981.38794 974.14166 977.46708 978.45333 988.13790 973.26686 958.12784 938.85053 935.34585 943.38161 940.85522 910.21901 870.45122 878.03717 901.51832 933.57325 921.67371 886.03007 867.89483 815.75429 810.68934 844.17154 861.65151 902.12585 939.35955 964.37983 983.63325 982.90307 996.98549 987.76970 994.35912 988.09512 993.54511 994.86053 991.95753 993.55219 983.10066 983.08557 983.66652 981.82657 967.19655 957.66818 957.43295 927.28344 899.04396 849.84501 804.77031 805.68295 839.77756 891.50786 893.66854 893.81878 857.09024 829.22426 848.35725 843.37234 874.50586 912.62419 932.86128 927.37736 932.91772 947.15503 970.27826 985.63254 987.65272 969.68154 947.51655 934.58300 928.03184 916.73483 882.16795 888.65583 900.63826 908.16724 919.52119 925.08178 938.23510 963.02172 977.02760 987.48576 991.03223 981.46049 963.36515 955.18290 961.32625 970.71531 976.31538 987.73775 990.84835 986.92751 984.63322 982.92130 966.23364 949.72642 930.03598 903.54417 871.87468 858.42161 800.29317 799.85372 793.98599 786.59183 798.21885 784.76171 752.68874 737.16059 731.87969 729.22005 712.89299 667.57869 605.28848 516.98720 443.55486 484.57429 499.30787 528.38344 540.07939 483.10106 412.81941 327.45367 283.63502 292.63968 268.47695 285.10470 290.27034 324.60438 373.57634 378.39907 469.00225 489.92240 482.86381 388.58475 314.65243 218.41581 99.68195 12.11075 4.71201
3.45134 12.73139 89.37062 208.47964 291.97333 360.66032 446.83664 465.37045 457.80467 399.21491 453.42990 448.48895 418.82461 433.85993 427.66135 414.05676 328.73916 314.91357 308.84637 313.19942 323.47076 321.02353 344.92931 434.52786 494.16074 530.56709 545.11258 555.62677 538.98979 564.06763 566.86363 589.52850 647.51575 675.79995 663.38406 720.44986 751.17484 809.11721 808.91503 815.53837 764.95923 778.18483 812.49996 827.09636 862.94797 892.57585 922.13194 962.12050 973.59642 980.20619 970.33256 957.88441 915.95260 916.97169 948.02718 950.81480 920.92801 884.61450 852.29423 814.51012 819.67068 857.37472 872.90158 910.17807 926.37289 955.37425 968.64741 962.92767 960.88929 957.87235 969.12260 976.13594 955.38274 923.39588 912.49645 904.69221 924.61387 901.12765 863.79015 847.91103 885.42174 898.90817 897.70803 864.71655 811.11761 783.29431 785.40030 808.55958 852.75947 903.63161 923.80806 957.28051 975.08601 980.68278 994.21967 984.64004 982.63635 985.73054 983.93135 979.53322 983.16894 991.96801 990.00925 971.65662 969.30509 959.78491 959.29160 940.65924 939.15460 915.57969 883.86202 854.59757 804.28470 774.19779 819.96448 829.77396 847.29813 860.79339 826.30029 823.84212 803.33512 833.30839 889.07805 922.24326 919.47759 917.27240 928.59986 950.67863 970.68291 977.97826 980.24267 966.83352 943.49259 905.16847 909.32473 903.31041 872.71186 840.98496 849.29686 873.79339 877.71062 907.65191 932.84193 954.23282 975.26570 980.91095 987.65245 975.28246 955.20269 936.58029 938.22851 951.68662 958.22237 975.49304 989.28458 990.17270 993.37099 978.93680 969.18794 939.38599 920.05310 897.71764 866.11182 845.06485 843.78552 846.23648 853.45852 853.94110 840.70778 824.83956 766.42876 753.25846 725.04075 710.47807 668.10720 612.53709 554.56285 495.06219 503.53940 538.75209 564.14027 616.02991 590.03320 534.73952 428.68256 397.66184 364.68254 354.83734 351.32255 360.48711 342.76600 416.47739 455.57905 474.12988 523.73482 501.11764 450.45181 392.40832 253.57674 167.06552 108.28859 8.67022 9.79521
2.94172 16.91450 114.75537 191.51872 324.86248 392.91855 477.62525 519.31570 517.54879 535.07128 498.27094 557.74774 516.36384 493.62079 533.42675 461.27841 423.76846 426.52278 382.76342 374.36905 390.80985 379.74201 348.81072 460.34013 517.65749 585.78873 621.23103 637.27989 621.14018 589.41756 606.98034 626.06836 695.55314 726.07735 752.32085 721.18652 758.37866 825.04611 856.77760 843.18843 843.45531 839.93259 837.03907 853.75023 881.81199 909.27070 933.58686 970.74999 973.97532 975.27601 969.15459 931.89598 902.15772 912.92425 933.86413 937.62350 914.78194 868.73662 833.15664 792.51862 790.89211 828.43424 857.26807 896.09185 934.19601 948.42356 947.04980 944.41947 930.24805 941.53872 949.30922 962.44613 944.28651 930.47738 901.14826 881.16128 895.96171 895.57338 847.74101 812.90621 832.24176 874.39412 884.99130 842.16914 791.12071 778.36354 755.90834 804.81612 876.67213 901.66744 935.88712 948.43788 963.09929 979.87857 986.62903 985.72449 974.10979 962.22899 965.65653 970.43450 976.54809 976.06167 976.30877 960.44452 941.52927 938.42321 916.25420 905.64855 917.17164 903.62912 874.79877 827.44379 786.92511 721.97617 764.67955 793.03640 800.37685 814.07267 788.52781 783.07355 791.42774 845.46131 891.68036 913.85621 889.87438 894.93376 922.08571 948.85516 962.81412 971.52148 967.49903 956.58353 930.40790 906.61117 870.34820 880.36725 849.67614 817.82527 807.14036 843.06064 867.62677 875.62749 913.11380 937.92172 962.69661 983.71233 978.32820 960.89160 944.57966 925.95963 928.53342 932.77476 937.68713 956.28208 978.68780 983.21910 984.82605 985.01225 964.56896 954.16060 932.79933 905.93160 892.03070 876.29736 887.36083 893.32697 885.06427 882.11079 858.44341 827.06589 759.92409 709.70984 657.15415 619.44729 612.36445 572.16811 521.51463 518.05594 565.36014 598.64767 639.36882 659.20064 632.68836 552.91202 467.85074 388.32159 441.45818 434.89481 458.92456 463.77812 457.29852 460.89148 538.98773 552.70896 568.89263 530.65783 468.02179 352.60825 263.96220 182.46684 98.25064 12.19318 4.64027
10.64908 9.81560 127.81974 204.49120 311.59920 397.40709 474.16865 540.11072 580.73774 595.13259 607.76265 620.18857 607.12641 588.39156 591.39798 569.79832 540.66790 532.70765 476.62372 450.05586 486.89450 456.89103 373.89037 417.87314 518.21686 566.25187 644.73448 680.77305 686.14345 661.58395 648.96591 646.78592 715.93088 762.50202 793.40813 786.72742 800.70600 827.89742 873.80310 880.37024 891.08426 876.68577 881.86367 883.44226 902.07655 930.19593 948.28139 964.68986 976.01233 967.43198 937.30974 924.38931 901.63347 866.92885 890.79327 910.33364 900.31987 866.23079 808.39027 768.20027 777.28496 808.90651 859.43302 893.97535 930.99753 918.66354 917.10248 913.48455 893.42241 900.20136 923.19416 954.03366 957.35107 925.01794 905.35365 862.48671 860.61285 850.73396 828.23814 787.99617 780.95690 848.89437 862.10063 838.70936 795.86658 723.90753 740.32434 823.67054 864.11130 908.42758 927.85575 932.69291 951.89851 971.02110 975.75667 980.61531 958.23877 944.98881 936.15766 958.98399 952.81361 976.87472 979.16731 970.99584 933.37514 909.55779 886.46360 871.94526 890.16786 868.17024 844.90818 802.35682 772.00201 706.20698 704.06864 732.18533 752.97973 746.85677 727.03344 772.89211 824.53632 867.02663 892.17879 886.68016 878.89762 872.35349 909.91937 930.31156 962.28719 965.51439 953.19144 934.42588 902.40672 882.65412 843.03892 858.98322 850.72310 808.24025 784.21585 802.13270 822.10441 860.70103 896.40154 922.05454 958.82009 981.80722 973.08027 956.49609 929.93221 901.46538 892.38957 899.45480 920.79379 947.47012 960.08385 964.20238 988.25793 984.40648 969.54026 965.62966 947.77238 943.56021 921.04198 919.25841 914.69796 931.89600 916.91935 899.01870 847.13285 800.57538 746.12692 728.09493 698.27133 642.37740 598.12234 581.79956 579.37500 598.16256 638.27798 676.79967 684.87917 663.97829 602.35564 542.25481 456.23349 449.79727 511.23783 517.78317 532.95927 529.80065 534.99828 573.34376 603.56166 636.87007 611.96214 548.59802 470.93782 390.42446 285.50815 176.78461 79.93106 13.49428 14.85319
13.39304 6.64565 103.47503 160.00385 270.48963 359.34009 428.96020 547.63992 593.08205 623.06849 653.21032 660.86381 667.87542 667.08976 644.83318 635.81732 615.12843 587.01902 557.41303 575.50537 550.22218 512.59005 447.17302 427.30635 461.27689 550.01006 616.04703 695.94983 741.86929 716.32883 671.43273 701.83810 737.39248 764.74376 833.17863 846.16366 856.72297 867.21515 891.16994 921.77954 914.80755 923.00354 908.87192 922.92145 934.72823 943.17494 965.72624 977.20826 971.00008 962.81148 928.04539 903.16688 863.40246 831.67794 860.86058 879.43767 879.02940 822.92244 772.39012 737.63396 775.49139 823.62763 874.25503 902.66035 917.81500 894.08447 885.83158 875.82359 848.59044 894.54379 925.04880 954.24852 954.69650 922.24352 893.99422 863.91606 801.33209 809.51516 804.21045 766.50465 754.98080 819.73861 848.02749 830.14866 772.54043 708.71349 746.34593 795.74567 862.81104 890.28121 905.67728 909.28893 921.75362 940.66325 957.88756 979.47906 957.45276 934.54024 922.68275 922.79901 935.75433 959.36637 975.16674 965.72608 937.61158 906.31057 878.31746 853.68055 844.80989 820.18310 804.59548 778.48875 755.44996 710.25230 669.47424 690.42579 701.72293 678.73125 765.37839 809.60579 860.71512 877.08668 869.68633 858.49946 834.99187 842.10814 892.99126 926.32624 956.20885 954.76617 946.32309 899.69010 881.74318 866.12233 816.46635 831.29537 818.51564 794.68509 755.29511 779.02109 795.66443 826.05300 887.64029 913.48885 954.37763 965.06886 971.56936 952.04271 928.23728 901.30148 887.49371 861.72095 894.27787 909.73204 937.14681 950.99526 985.08597 988.00662 983.56437 977.05928 960.97073 940.38008 934.17662 948.12551 945.22310 934.90269 915.49544 892.50283 839.42982 765.92751 758.64167 774.90199 742.63076 685.01376 665.24136 676.95412 646.98828 651.91983 710.23373 744.76399 733.55078 687.36084 614.11829 555.91813 510.85756 551.53620 591.26939 593.38794 587.82322 611.08477 629.74758 629.45669 654.68692 658.88709 626.93048 576.29959 451.89083 388.05410 252.29133 181.76127 89.35608 6.15118 11.87687
12.85976 9.99411 100.18088 166.16122 258.52922 335.81708 452.53351 530.33943 582.86603 625.21141 605.24040 649.49842 678.20253 696.05570 708.15616 687.85511 689.60498 661.45360 647.44802 652.34588 621.28520 556.17690 512.97839 469.61258 464.29418 515.69943 628.21247 688.04554 753.00258 784.28806 762.57025 765.99350 773.72857 797.01754 827.97995 876.82135 899.59771 915.50484 912.82951 934.98428 950.20121 949.74742 950.07428 952.58740 964.26427 976.59765 973.82265 984.41755 974.23820 942.89943 924.56563 875.02304 852.94575 805.62443 817.67026 835.76087 844.91870 804.59502 746.40854 728.51498 754.00486 817.69928 854.86457 901.04704 900.78032 866.05309 833.66513 830.68086 849.67628 882.11854 924.89823 952.14405 955.73409 929.37751 884.86411 840.99628 791.05313 747.57097 739.30655 695.57226 719.28743 780.67176 806.31099 808.14879 734.07939 662.57956 719.28846 796.35577 858.88081 880.97058 872.78093 888.95279 897.92164 925.99128 952.06121 958.98314 946.66548 912.21254 887.37334 900.99835 932.01647 957.78553 968.69182 978.80275 953.57310 941.42688 902.08852 865.35791 850.57868 797.35986 756.07999 732.04660 731.42775 717.56482 672.50546 648.91678 650.28440 700.64252 772.24484 831.76795 859.87198 855.14720 838.23989 809.27801 816.32067 844.16737 899.12914 932.08594 949.06221 952.00900 923.22966 887.20421 840.62993 827.74204 796.94891 765.36903 804.26794 784.16351 742.47498 746.26559 797.19433 838.79892 877.50390 927.68634 950.18915 968.25152 955.06243 933.41064 902.83244 893.24371 855.16373 839.53405 863.96247 898.59562 914.71025 949.12512 977.52282 979.21507 984.75565 990.12576 979.26433 971.85016 963.60123 961.24774 954.38139 949.63690 910.84205 862.13830 821.67648 781.47903 807.53243 806.90245 768.08274 719.70098 732.20187 741.50516 704.58246 734.07302 777.61450 798.92535 771.56790 717.21504 627.42824 585.10949 592.25454 632.66702 646.75696 689.93400 688.31430 701.90834 678.83391 687.23058 667.13399 648.37605 624.41165 551.23897 456.28878 393.07644 273.10916 190.16827 97.21554 6.23630 15.49903
9.13619 8.02427 123.42436 210.49888 270.40499 384.92358 426.08784 509.05243 521.87158 497.49419 548.91800 588.37014 619.70176 659.47746 699.72755 729.73099 755.19710 742.89940 763.00092 714.97293 667.31671 600.59098 578.85304 549.93264 530.92099 526.62728 618.28990 701.67796 750.99333 796.65400 798.91664 819.98072 809.46964 848.78475 889.58512 879.50362 909.43946 939.04961 951.83753 966.68380 965.32241 968.24509 971.49872 967.34268 977.04251 976.06142 981.78156 984.62226 977.99792 959.32962 923.90128 879.52304 848.05936 793.61874 758.81029 783.80908 811.27111 808.39138 750.59324 705.00209 735.16285 803.51049 846.36135 869.44566 848.52593 812.53437 772.57431 771.71108 823.36780 860.08161 921.93329 936.77596 953.36525 941.92300 887.99265 855.89716 809.81740 772.41205 736.89710 691.78870 681.91338 751.56722 778.26920 770.05185 748.24219 645.90232 708.11795 792.50034 828.22779 853.17326 832.79586 843.07092 881.29615 921.89392 943.33199 949.55332 936.46753 892.85178 870.10106 879.45771 912.47400 944.59660 960.17404 967.99400 962.93217 945.37837 924.75539 890.24559 869.14365 847.66239 803.95162 751.93354 692.37699 642.24476 621.07655 603.79191 652.16795 729.09529 780.35627 843.79303 847.02519 808.26079 784.95137 761.51206 805.44852 848.74608 898.59821 930.05887 949.58510 958.22455 911.83234 891.81459 835.19511 770.69096 748.79695 729.51362 738.81348 730.75016 712.37148 748.18971 803.63077 850.37464 884.92797 938.09121 950.40593 966.15038 950.58265 933.36815 909.76593 844.82004 829.20191 811.88646 845.72095 884.03898 919.43659 956.61892 967.51535 977.48705 980.96142 988.96707 986.95837 980.63356 984.16253 971.27637 959.37792 928.66147 888.69811 859.31426 841.44881 827.77289 846.47903 847.29518 820.01246 778.85292 809.41563 803.91443 783.75041 792.62478 825.71539 826.02277 777.25345 727.25212 695.46669 693.63030 683.62035 719.20023 717.32897 736.95322 750.22689 753.64087 734.80470 672.14425 623.95222 592.44083 544.88632 524.58884 445.91326 400.76402 283.77483 176.04432 84.25016 11.68156 9.88760
5.11397 9.02403 107.40130 243.73575 297.37533 380.58364 409.52683 407.75365 448.10982 449.73321 452.09609 524.16766 561.78445 591.73663 690.67528 701.02226 739.15351 762.55318 767.25093 776.81283 709.94224 692.49874 654.31972 632.89416 601.58552 581.75654 591.41946 672.67329 710.13684 773.88771 821.70305 850.75538 851.97693 888.01490 904.70375 913.09547 918.22686 962.37171 966.47211 978.98987 965.07649 966.63676 978.89626 973.69796 963.67564 973.90521 975.55312 976.04970 981.71151 954.64992 929.82842 908.11757 865.67960 805.19272 754.09099 764.70887 788.99029 772.11481 739.97723 663.66534 695.52645 774.21672 837.56147 837.32632 808.61528 765.58729 737.47223 783.49041 825.53304 883.32752 917.21799 941.27494 957.01784 938.30124 911.93618 889.29194 856.91103 808.30790 788.79701 736.00246 671.01943 674.25797 711.09406 732.02479 686.23971 612.86353 658.41231 774.02374 809.45131 806.46151 779.87539 818.18103 864.41205 905.91714 944.13206 940.11099 906.65414 866.28569 843.94041 871.44964 904.52612 924.16178 949.24620 971.48129 965.56611 959.66858 943.37640 923.23064 902.53771 874.13314 840.40942 782.41914 751.29426 694.03754 641.43485 589.24913 675.56624 733.33951 781.55918 812.31785 797.07495 759.43825 717.33810 760.45301 801.63872 856.79215 897.51018 943.39542 960.50129 940.99659 910.51860 875.37894 825.42187 788.75134 750.49369 684.06914 676.18591 701.74993 731.74539 796.45939 842.23275 875.24818 912.46847 932.01569 952.68228 957.75239 939.63852 904.35474 870.24507 836.38565 779.58869 799.05121 839.26387 890.13398 931.10743 946.61875 958.93920 962.68662 973.51735 988.01710 989.47917 994.74595 990.02155 970.95412 966.24867 933.21353 906.78937 888.33175 886.13570 892.29515 887.73103 874.32220 833.21165 823.54416 842.96242 857.99060 843.10888 840.21967 855.64387 854.49586 802.97142 785.45718 755.48444 752.18774 760.68352 765.01694 764.84069 776.75219 789.08370 767.60209 732.25977 666.89470 593.21722 509.05676 482.52413 414.87361 389.15040 323.65738 261.36689 187.62498 96.80252 12.97254 11.23012
8.47749 14.29388 146.85431 238.58651 289.58798 330.88515 329.46663 345.59692 348.12043 376.88872 430.12841 442.34481 478.95124 510.22558 592.47954 664.01993 688.14654 743.74521 780.74798 799.31316 788.07616 751.61239 722.65587 689.15630 654.39687 634.34608 600.48955 624.80168 671.97948 752.03212 802.68435 857.71018 877.52469 896.13412 921.80735 941.16525 949.64085 960.84498 981.54015 963.94164 948.17294 954.31859 953.61102 959.06402 951.87272 952.87675 958.39054 966.75374 968.93691 953.29253 932.47917 891.62187 858.37055 793.42347 756.03244 706.59226 756.59772 725.01472 699.27737 631.96457 698.60254 770.83278 788.79469 777.54188 765.61851 721.61266 748.91040 798.22456 844.23367 887.33284 904.38368 949.90139 959.59881 960.58658 942.31783 917.07593 892.52952 862.30193 816.34352 768.52324 696.12217 619.41897 649.35294 675.94315 629.37871 599.34467 676.33483 741.79435 786.78201 757.61378 760.90814 823.52765 848.17777 905.31891 930.54853 935.94765 912.76635 858.85709 815.76938 844.16203 872.23494 905.34459 932.31266 952.12926 966.26643 969.35419 945.18909 934.78571 924.41879 905.76852 859.08486 832.44221 777.53472 726.66211 646.67185 571.83257 646.44910 702.24031 743.18180 765.02677 762.70700 712.87178 696.23002 777.43961 810.80822 856.48104 909.21915 953.59341 953.75382 945.39349 927.24345 883.51490 848.88058 823.64921 765.87364 685.45901 640.94457 656.41875 728.44032 807.88170 856.35595 902.29131 913.51269 948.52368 952.37296 937.22853 919.56725 893.86531 841.77797 799.81609 764.89327 825.17527 858.53456 885.21769 905.79056 923.82637 932.27118 947.21272 967.69923 978.09172 979.68208 986.72396 988.81744 974.35492 962.91708 952.25870 945.75488 920.05509 936.22949 926.39898 924.05925 906.38056 884.11757 874.61287 878.05005 874.29701 872.43670 867.66035 877.52194 867.11390 844.02387 823.33697 803.56677 802.38432 785.60364 751.66113 746.25642 748.20535 764.63251 750.58365 709.65266 665.48729 561.72124 474.73474 409.96758 325.73624 306.25579 308.42851 254.80599 181.22686 116.98744 8.35741 7.98629
17.57690 9.74985 99.21144 198.18056 197.77506 228.11411 242.42708 238.31529 269.03639 306.18620 357.36280 381.29062 421.69765 473.02776 523.56454 581.41156 624.70273 673.29966 736.53926 796.70973 823.31550 820.01381 801.24280 754.28065 730.93054 707.83497 643.79050 668.17150 727.29311 736.56600 792.70795 836.67483 881.83134 923.50605 947.67483 957.22107 965.76699 976.75510 972.48479 960.18984 924.20583 924.82719 939.86665 940.69438 927.44717 926.67384 941.35320 951.78755 955.04319 955.03347 923.58462 882.35172 825.39891 793.13330 733.22693 674.68061 709.12850 690.68797 650.77400 594.22462 670.45306 747.34983 740.38559 722.07691 696.43226 657.81381 715.07942 765.72464 809.79351 841.82137 893.58826 935.64562 958.53948 965.10581 960.40807 936.57661 906.78882 881.75396 854.02079 788.37980 735.66821 612.01834 570.16336 600.11219 557.33806 611.84574 687.55445 736.11377 732.65344 715.17079 740.48570 805.51407 849.58884 907.52616 933.77748 924.02258 905.29273 869.63274 820.61259 786.90745 856.78769 883.86005 906.32273 934.99758 958.57576 947.60102 917.37368 903.03714 888.04435 877.73903 859.05546 836.98571 793.61229 718.79199 647.96579 565.44869 582.92930 627.50857 696.74684 721.54898 681.09403 670.30623 712.85838 763.95402 813.61403 871.51296 915.39361 951.20369 953.23590 933.70868 916.48427 876.29952 848.73607 828.93282 780.06483 688.52373 629.40608 687.37956 744.41763 797.78452 847.66619 882.84394 908.60109 945.63058 944.70173 935.77310 887.93442 861.16000 811.13953 750.94528 745.88990 762.43561 818.82413 872.61200 884.39961 890.98895 912.48896 924.86609 941.14308 965.08866 977.23955 983.17641 974.06089 980.26365 978.62833 966.53208 953.62076 947.49971 952.18340 949.99483 943.96207 931.79408 919.43340 915.27641 903.51300 892.19405 865.48799 852.26420 863.87521 848.16536 833.78759 834.52867 817.43652 803.04045 740.57701 692.69799 677.39018 703.89974 723.49277 712.02236 682.24541 631.27221 582.44003 459.26944 414.47565 338.46005 279.63785 241.33862 186.79030 144.54071 80.58158 8.36204 6.23682
12.27976 12.60983 71.55578 119.71424 161.62343 182.77098 176.80400 234.12900 263.15750 283.97966 309.32473 374.77975 397.45632 411.18005 478.91302 541.52636 564.02104 632.53104 734.65622 782.35007 845.21214 846.06682 828.81550 823.95397 796.55502 745.70430 717.78734 740.91544 777.40284 798.43725 814.22279 863.09168 914.10520 946.79312 961.19874 974.06758 979.26234 970.61191 962.38078 943.19215 912.15653 876.07120 895.50369 909.03510 890.83166 902.08864 916.36497 927.84429 944.92023 940.82927 900.38919 871.24118 794.23307 747.29511 701.20369 646.91943 643.14742 637.95607 603.14546 570.23113 645.89392 701.34402 713.95479 662.32831 625.78329 627.77467 682.39456 729.45310 772.91116 827.61053 874.11367 909.51890 950.71334 965.04318 955.51395 945.24183 910.02853 874.54922 835.70186 810.47472 748.16557 659.10429 608.82760 556.21027 551.65973 612.18676 671.20270 684.21929 669.87552 710.75361 761.92485 839.98507 872.85778 916.81134 930.97229 918.84469 883.59966 837.79477 804.83584 758.54714 821.25105 845.90193 893.12254 931.42172 953.18831 937.22703 916.68324 874.17891 855.55370 845.47539 820.98729 808.04890 785.20962 717.63025 639.88581 575.69049 538.24117 588.31409 613.03638 649.30471 633.04799 678.66467 732.92488 792.65617 833.12494 866.66801 920.45073 946.87960 945.71597 909.49662 872.56320 835.42848 816.35926 806.16305 776.09724 710.65182 628.34840 657.28835 731.86261 793.42738 818.91263 871.63511 900.77457 940.26592 948.89403 932.55076 896.02778 856.77987 801.70383 748.76038 713.11753 747.28731 798.14005 852.01714 859.89876 869.18472 897.53484 906.12819 910.34169 939.93084 958.12747 959.26759 971.81496 981.96431 978.65113 985.83499 979.72494 974.13138 962.43867 956.36340 945.39468 944.25007 927.93091 903.35649 896.00740 864.64782 838.41865 801.39688 798.22302 782.17176 762.04033 781.20026 786.01974 763.55380 705.78130 633.09934 596.71620 599.36599 635.97728 637.67855 608.30752 601.42144 585.35814 545.93412 502.01386 377.86751 352.49764 270.52852 177.01135 142.82792 76.54437 14.64719 13.03431
4.56705 7.75305 55.26315 105.26031 123.65419 185.93683 212.63068 268.83868 322.17938 336.86226 404.58702 451.37442 498.48195 458.12363 462.91902 510.12822 562.48681 624.77265 708.08513 771.17513 820.31564 867.04821 865.62243 864.85662 828.69979 811.99389 796.57984 797.43023 806.12143 822.99740 842.17458 883.88111 912.35724 944.38623 970.56274 972.21122 964.86417 964.04191 946.33313 922.77894 897.63969 875.15160 868.96918 867.10561 871.97098 851.15052 866.16693 893.87067 909.53091 930.44690 917.83423 861.09702 802.41872 751.11705 699.79416 661.97810 616.96717 613.09680 560.51080 527.07552 600.32156 632.13321 608.52554 580.33221 588.54046 625.34327 675.54820 721.01394 777.54682 823.13661 877.09740 925.81355 955.64436 965.80724 943.13339 934.42806 903.63599 858.52970 809.62826 789.56594 743.27581 689.16198 636.60135 556.78528 528.14129 606.33548 630.13623 645.02681 651.67535 717.41466 782.54348 843.60637 867.37964 903.98532 922.45886 919.25052 861.57303 795.86779 760.36435 742.96653 779.81899 827.25017 870.03500 920.27549 942.00582 943.34240 908.33754 874.53008 808.72917 778.87395 776.53475 772.21561 775.93327 715.22064 659.18791 598.67045 523.44067 542.37916 555.76879 574.32019 625.66929 702.49797 778.33740 821.36281 856.22823 879.94612 888.54374 920.25536 927.79168 906.16799 848.12341 812.58208 754.70965 776.31859 741.42326 683.39690 604.58864 657.86472 726.00093 748.00095 817.61747 873.26984 917.76987 937.66913 944.86923 928.05112 911.79829 848.39295 811.43732 764.60857 698.13658 746.68239 793.29496 833.50750 816.00543 832.66921 856.63861 865.66127 893.47557 934.10128 942.74698 937.72979 951.34263 973.40068 986.80788 983.78165 980.97660 975.18759 961.06834 935.92606 929.57446 922.48706 908.65921 890.15222 868.01351 838.34063 787.34155 760.65460 730.55189 717.68554 694.72595 704.86977 732.21210 721.39727 662.63461 583.95354 543.51745 501.02825 556.85865 570.85193 525.83870 536.81056 571.34882 571.05043 523.43582 469.47273 379.23807 310.74028 216.94009 167.83167 94.53388 7.46889 12.62904
10.44270 12.78562 98.13751 172.62950 216.88191 231.32823 279.00476 353.12002 380.54898 418.52046 460.80438 541.45744 573.57348 548.71977 532.53709 567.14459 596.89005 643.42823 703.09197 777.97464 829.69260 870.72727 885.83789 887.46057 881.95934 864.37089 846.88485 843.37456 860.52057 867.19018 877.49582 908.03951 935.33027 956.54419 967.39348 962.23392 951.74958 941.00641 927.67851 897.71546 858.78357 802.14607 825.25130 844.99198 836.87819 834.03365 838.85260 855.08671 904.36305 927.62513 917.98948 880.11647 838.39970 812.47114 769.14394 716.34590 685.72494 628.23060 565.16777 521.32970 562.66329 594.86589 551.08018 560.45932 608.77991 684.28114 715.86515 773.97277 799.33645 856.46847 897.94713 932.33606 951.62927 962.74827 945.86647 922.89532 903.49944 857.35430 806.61834 738.05690 719.02851 702.91026 656.67229 577.39282 506.55685 556.72870 589.69578 570.06816 640.95612 699.38709 782.59525 829.37458 863.38817 893.95058 917.14341 896.83935 852.09043 787.09049 726.11230 712.21060 776.88531 820.88554 873.91769 918.44622 937.36533 934.19361 898.28304 852.00871 790.68381 764.66596 717.41813 724.96102 745.85289 712.09870 669.96251 579.55456 493.21478 505.20562 530.41922 596.24851 688.30211 742.76751 794.13381 812.76931 806.38207 865.50547 877.52030 913.00107 922.02149 901.26949 841.11826 778.17374 713.73988 734.94080 716.67124 626.26269 578.83986 651.69394 678.53727 768.05167 806.84920 857.98179 913.49009 942.05804 941.32093 919.49273 890.61104 830.97322 786.74737 729.61714 686.60804 728.93595 762.83979 794.79191 783.57351 788.17463 823.49702 865.71677 906.49128 925.40401 925.68484 910.34274 932.87600 941.88956 976.21112 980.91558 979.44320 966.39680 936.77245 921.79543 883.87451 885.14363 861.54321 835.69109 850.15466 810.00761 773.70293 723.37688 646.71659 640.87054 622.99600 628.67342 663.18769 645.89310 619.26757 546.43404 472.89373 465.91797 502.36217 484.57732 429.25423 448.22587 493.46771 527.62649 511.23699 478.46758 387.10185 346.24078 248.26807 184.83122 102.47750 15.21663 16.31883
11.61135 8.69399 131.14910 217.94099 290.98243 325.13873 394.21587 442.63195 477.21180 490.05523 519.39169 599.08418 594.01618 622.36944 615.56914 623.93980 653.49041 685.44195 751.91582 787.81448 839.18014 871.23370 885.87974 891.75313 883.40309 881.15409 876.54567 887.45496 893.53955 910.79110 917.24527 941.39942 953.35673 969.49142 973.18026 962.72281 944.77744 920.45175 913.90036 891.43275 833.96777 781.64778 773.75754 819.37944 795.75260 801.29838 797.96257 818.87798 871.10961 913.03497 931.47826 903.86482 864.82096 842.56548 808.74817 771.04068 752.10779 706.46098 616.98008 569.04192 508.00576 523.67729 498.99340 584.97666 649.77622 729.74709 759.44751 826.01520 845.34967 864.92827 925.50337 944.61231 960.03019 961.62637 935.90036 904.36569 872.18718 829.37176 769.78538 724.03200 674.57845 660.42781 653.74687 602.96568 503.12682 508.17728 520.72092 587.81653 634.51599 688.00539 756.74912 797.69652 870.12809 891.73798 909.35575 887.51129 836.28332 785.81388 715.97815 724.49673 785.68629 835.52649 858.16389 912.58921 941.52329 929.11036 892.76442 843.33382 796.39153 740.93553 678.56389 652.77254 667.01216 672.02530 634.88462 505.72690 466.42366 485.57664 563.26031 637.62971 716.25707 750.03156 758.08862 751.53137 772.80277 803.23247 854.26298 879.01349 902.89534 898.17271 834.65289 766.87129 687.84506 639.56089 662.75232 595.78901 573.95412 622.24697 669.49955 734.15708 805.65863 867.38658 891.86844 919.30068 919.79381 928.00047 897.58079 860.70934 799.83224 725.26695 641.56642 695.16937 734.25489 740.07808 742.44159 779.53109 817.00372 875.36326 910.09102 921.12546 907.21750 885.53470 916.32483 938.64625 962.34774 977.37364 970.45228 962.16830 937.57666 920.81754 878.34188 841.35237 802.68926 792.02783 786.74555 752.93897 724.03588 695.19996 632.20130 582.60409 560.32551 587.74830 575.32383 568.71505 573.50898 528.90440 432.45136 393.49978 413.54410 381.35330 369.51753 344.79785 419.67668 462.47949 459.21674 447.00427 351.25609 333.92040 276.73810 179.80936 115.54701 8.70496 11.91019
11.01830 10.33871 86.29745 230.04201 311.65348 398.06468 464.44713 495.85175 556.35894 578.09636 603.82515 679.90212 691.94690 710.23011 680.62314 714.22258 725.07487 735.14922 789.60184 793.95147 831.68897 840.11652 836.60176 855.68323 835.42553 858.23187 864.49973 883.44406 910.26235 922.96141 949.74550 955.42534 966.40130 958.68377 959.89662 945.06075 936.39474 911.27936 869.19333 869.99766 843.70962 781.16711 735.79865 726.37593 738.01306 747.29715 750.70729 816.18883 870.93370 902.21826 926.91794 922.28155 912.79223 890.80550 851.14402 827.29568 788.27140 745.04401 664.61800 584.34948 499.79616 472.06626 533.97174 580.12912 671.77361 727.50722 777.97042 842.28414 874.09318 899.37432 912.02824 930.40434 958.37676 958.97157 938.81336 917.65275 877.71473 846.84178 805.84924 748.28248 652.43869 623.25581 578.30579 579.10598 532.24310 475.14718 543.95824 592.06772 609.17620 662.12991 742.94001 808.80794 853.72950 890.68904 898.01982 858.43171 805.06727 753.45474 698.25295 693.33629 758.78803 802.77163 866.28087 894.39269 935.26175 925.72296 905.16562 848.89309 822.65906 755.01721 702.40146 648.97196 618.31174 597.10829 591.25456 501.72757 442.39852 529.72115 573.57211 652.53419 704.38182 739.49873 728.56010 710.02936 752.30396 783.03275 819.95145 858.64246 893.26154 883.18165 840.95846 777.69739 710.87692 605.77030 618.70272 550.85603 536.39564 593.88864 653.12142 742.45524 803.91863 847.91094 867.51278 879.73830 894.03825 922.92564 899.74937 863.46085 786.61481 742.18003 670.62960 655.68454 695.48124 695.68559 710.15319 732.40348 796.57377 870.60352 899.32896 878.56056 850.26062 855.23795 892.73770 920.42919 953.30276 969.63541 977.42009 966.92249 954.03124 929.29630 889.45310 844.73825 791.67868 758.13529 733.69850 700.40930 675.02528 636.15977 595.21029 619.30738 576.64899 513.06307 469.43757 518.01734 520.59475 489.95524 423.67774 342.26985 320.54439 322.35843 287.64835 259.78283 319.80523 373.18409 401.40015 361.40032 322.21064 295.26860 253.93450 181.57170 102.78271 8.95590 13.08757
10.68199 10.34671 98.31460 201.89392 278.19129 372.69542 433.95525 517.66009 561.61201 630.36039 664.70917 694.87193 751.18463 747.80345 756.42347 761.76455 759.03997 759.45731 768.08301 781.40032 806.51875 789.87100 802.19714 806.87664 801.58081 800.32997 814.47298 871.59759 886.99877 922.26436 947.54878 966.01972 957.17254 942.07827 946.44298 934.91906 929.30944 893.12195 851.37144 831.37913 836.57238 790.13491 738.62337 685.22381 708.31673 699.72428 749.83047 808.93021 864.15653 893.88223 916.42742 920.96499 915.34456 892.36601 866.74214 828.45048 787.90113 734.74749 658.11018 604.46260 505.48491 471.89850 566.03075 625.09166 680.66649 745.87203 816.75341 837.47441 875.26778 891.41423 893.24072 930.53285 943.97650 941.44929 924.80928 905.88484 889.08192 861.48218 820.86886 775.69381 691.55154 626.42398 537.41735 505.85082 471.60133 497.85383 526.65439 566.59544 617.71399 691.28565 746.56044 822.99284 871.71786 893.63736 895.92549 842.60212 793.93107 745.89278 662.62823 675.82867 728.92253 800.04544 851.72690 892.52725 918.05187 921.55231 917.02969 877.90250 831.38977 791.55716 738.10838 672.94250 603.97991 570.76830 533.43527 482.60734 423.76752 512.39672 569.45424 617.29291 674.70093 685.81619 636.81353 688.84507 699.33771 747.31051 770.30243 843.50855 884.72051 866.01939 839.41728 780.08316 712.10071 638.54555 550.25395 500.50370 549.09692 587.94853 645.25213 723.08828 782.79913 828.85171 837.36444 852.69117 892.68941 897.76314 895.88804 863.98940 796.73668 731.70130 648.72107 606.21124 671.48750 668.28754 680.22231 731.13141 805.59733 862.37380 861.53887 849.03521 819.47773 863.10073 909.63086 929.16608 953.37134 957.21011 971.76793 968.68233 963.34869 924.93021 891.54303 869.58502 823.57413 812.42879 798.05939 764.90218 708.69366 664.59511 672.08723 663.05705 610.58241 547.32771 490.26023 446.68174 460.64071 463.61888 389.59612 312.88058 307.30301 301.48345 298.29496 247.44919 237.65846 268.01772 300.27470 269.94934 223.30638 186.68966 170.70216 126.65974 62.54946 7.01607 11.50769
8.80117 9.45076 88.79248 137.97823 244.93909 319.73791 401.47130 457.48752 555.64451 609.30286 681.28674 708.37724 746.82321 763.16840 759.41544 750.07432 746.86577 717.22881 694.65504 693.16260 718.57760 723.21168 734.75400 738.98434 744.92948 751.33337 790.15269 841.53961 873.99013 923.09103 952.56147 953.71606 941.68782 920.26420 905.74327 903.79752 895.01000 876.41740 849.68781 805.75346 810.15445 790.89186 709.34713 652.84048 647.85687 702.39552 759.84285 828.73643 855.49318 890.13254 889.35401 901.08276 903.88955 883.96278 840.20659 786.51433 757.00584 698.65369 607.00184 555.56357 473.86767 458.30174 557.36000 637.47861 690.21211 758.81711 811.87997 856.76053 868.18316 857.54269 862.76480 897.73628 935.00044 930.56375 900.81727 874.20445 859.39461 846.02559 816.30333 781.24002 716.13020 644.92170 580.47820 512.23461 463.91652 477.77117 512.95500 572.16759 668.09166 739.02522 776.69162 827.76676 881.25942 898.54949 879.24168 826.34064 749.94456 715.52344 660.07155 638.35262 712.78896 755.03477 820.62514 850.96140 900.34883 921.94630 924.89395 896.65121 858.15913 810.18861 744.56391 728.74847 687.98692 621.45585 548.02106 505.33735 458.29170 439.91948 548.85169 584.54433 636.07401 605.75432 580.71068 638.48733 627.56617 701.39965 795.32984 811.17101 872.61091 854.09178 811.51886 762.57020 694.29540 629.96823 562.38864 493.55262 524.46095 618.71586 667.40730 745.05812 785.04602 818.51633 820.11837 793.72651 850.06472 878.85379 876.27233 842.97523 810.48173 707.99662 637.53003 593.39870 629.11206 619.88480 715.46940 768.83323 819.82790 849.49749 840.07395 815.98429 818.74722 860.51642 894.91605 934.70022 933.18512 940.22571 960.67569 966.24786 957.78232 935.86691 908.83101 899.90869 863.79048 856.40397 840.42073 801.42073 763.39812 714.32704 704.06838 710.40045 647.85042 580.96482 510.21298 451.42668 375.81655 364.48920 349.60512 376.30543 409.97712 393.73297 364.66802 324.80486 240.76548 193.19955 175.34538 183.34018 141.76710 115.57218 113.14597 109.71138 69.80999 2.23757 13.29255
10.20448 8.42002 83.17878 178.58378 211.87944 304.24027 376.08808 449.94405 544.15646 589.76999 646.18171 693.13488 720.10569 714.37537 700.55084 705.07579 665.03631 641.46246 624.99262 623.20351 624.66213 669.27065 673.23842 665.68647 676.02844 716.40973 763.78541 811.58413 867.46624 915.85586 944.66187 953.36362 929.41988 908.27219 878.49408 847.12366 850.92055 861.78744 838.70576 788.04428 755.54913 742.23897 680.85111 630.73487 636.48686 716.19105 784.53857 830.37239 853.10807 855.94259 859.21200 884.05019 891.68821 879.32762 807.13434 747.40613 717.30458 661.58588 604.44035 537.17052 452.56288 441.26901 528.46257 616.77527 686.37594 732.81982 793.28253 819.03133 814.95953 806.80916 877.09971 904.47538 910.74613 893.13836 851.40185 814.71178 796.73221 800.58863 791.87266 749.92342 712.83612 658.16255 584.02620 522.67296 461.20006 487.49213 561.65976 623.05700 684.39041 756.70492 801.22452 860.96990 891.49467 900.46032 874.37966 810.84186 755.96975 679.48954 632.13170 602.94426 703.15108 728.61723 800.96396 814.77640 863.38283 891.68917 914.76684 911.95770 898.38229 833.59236 809.85190 776.91462 726.70553 650.09294 604.88803 553.04608 480.25632 443.76367 498.05745 535.30298 583.41395 556.29837 525.86742 588.13321 631.13299 724.64447 793.23197 841.79066 871.98063 870.29654 794.23933 738.97200 668.58014 588.36944 542.21007 485.85950 540.90454 623.06070 685.04806 755.00564 778.46974 803.02073 773.11162 756.24230 805.31808 856.10138 871.44439 846.92355 783.03159 697.67276 634.93901 564.94057 586.85315 645.32291 725.57441 791.39381 819.87894 821.59211 810.39529 765.71517 788.89259 860.84549 889.94724 915.96272 917.29884 926.38063 933.10935 933.28342 943.87931 953.42625 934.05619 934.11616 903.15425 894.59366 871.50798 821.91004 789.00382 780.08998 773.12725 723.92507 678.50637 580.48076 530.31668 455.64186 377.83317 415.29980 439.69298 467.56709 489.92552 491.06730 452.46702 363.83456 288.63077 244.31579 208.13380 221.45259 210.47344 231.32822 193.56730 158.01678 109.50910 11.31314 4.83441
9.95269 11.18884 76.24566 169.98891 226.39888 301.65595 367.07387 432.14303 499.60400 561.70866 585.40876 594.86081 599.57169 619.30952 626.60131 661.68354 651.71779 557.42360 500.97795 561.42280 575.93443 588.87693 632.03925 624.82651 654.47496 705.44360 769.74081 833.63472 884.87061 922.55327 941.82782 946.24590 923.12245 887.64940 852.75636 811.09924 798.54840 809.22639 815.52721 778.67150 721.10634 707.05186 684.78381 600.36089 625.58048 707.82874 769.67872 809.05786 809.63259 810.74790 821.23224 866.31998 878.00706 852.17228 811.36282 718.74520 653.70759 612.40313 530.66946 465.21807 424.14086 413.03459 494.16741 554.49407 651.30344 721.29475 759.10021 788.36916 776.65040 795.35682 861.13121 890.53327 909.45935 883.36267 816.39974 767.62045 743.85851 721.14912 713.33397 709.43976 664.15566 626.94870 575.14583 499.30676 432.80626 481.26561 552.07882 643.24982 670.37348 748.25738 787.61340 865.57306 889.29100 893.16668 864.81962 826.32643 751.52313 664.43045 610.21413 569.66180 666.65790 725.61656 778.48441 797.55753 840.14512 865.60364 887.48024 903.06551 902.32955 885.69415 854.11581 808.50134 758.60165 710.30892 607.80065 565.58893 485.83810 420.07281 430.15536 491.41363 532.62765 492.27098 491.15280 565.12180 645.31009 711.84621 770.79662 837.02207 875.76776 860.34103 834.53002 768.21661 707.66652 651.61107 573.44857 481.34952 496.84522 558.37210 636.66005 705.07913 724.42997 756.67223 716.64017 714.49187 746.97422 794.22187 836.95365 816.43332 762.90066 707.59149 621.87327 529.11911 553.81529 656.15528 730.51324 785.95683 795.05101 779.77132 751.45252 727.95922 784.31722 825.83600 883.64010 895.22167 889.51300 894.83569 907.20377 909.36962 931.55484 936.30859 950.98567 955.22209 935.26747 914.98451 875.86955 847.58980 823.61962 798.97192 757.63822 710.18586 658.16004 592.66878 533.96513 468.22575 455.38544 495.83138 512.55669 548.97916 575.13352 553.73433 500.32340 410.63228 371.38101 305.30434 305.92057 339.29993 323.71352 306.78366 266.49878 171.48528 109.19348 7.72777 14.04302
10.15594 12.19216 90.48758 181.02840 270.82570 348.69328 382.68127 431.37674 469.96519 492.09294 530.11158 508.96014 528.93308 548.66935 532.03165 588.08375 524.51220 515.60384 453.32690 498.92469 521.85873 563.82207 661.29388 682.57687 730.68767 746.17824 786.22101 838.07268 867.83431 916.75818 940.57641 932.40345 918.54503 876.71945 841.71705 799.75399 752.69966 756.73371 801.32353 770.82402 725.67845 667.95598 650.80283 579.97244 619.14921 691.53478 750.91628 769.36597 752.17753 755.71780 797.37752 854.08430 882.54282 855.34563 794.59155 742.32685 655.81273 606.91198 525.67554 451.19356 392.30058 397.40037 476.61722 540.76008 613.47472 683.33626 707.57783 715.76413 734.00812 792.25930 848.71095 887.90329 898.74505 881.99349 800.19994 764.64239 702.60778 668.47616 674.05960 636.46485 631.71239 549.89840 518.14940 441.44941 400.50223 477.27496 520.20611 609.20600 671.50090 734.13850 805.98438 857.39843 883.69085 879.59494 822.55357 775.36194 714.19164 642.24874 594.35701 557.52992 648.08427 721.08298 754.75525 750.81097 782.71882 805.20237 868.50038 893.84849 905.69754 885.13557 862.87587 822.77031 771.38383 701.88909 621.95710 557.26931 482.76319 428.64883 384.75309 445.74073 448.61828 424.19793 460.63402 554.74530 603.20219 687.27496 763.88208 825.35430 868.97669 879.25131 846.86286 786.45530 732.04428 647.83901 583.15255 497.31624 424.53611 492.13211 627.33957 645.96193 673.82218 709.72560 683.31368 665.40186 707.61904 744.27619 825.73889 805.14657 761.49847 680.23259 617.37492 530.24809 563.26402 664.14985 711.11357 739.89586 745.41293 711.19141 693.76307 707.52841 774.71807 843.86875 859.06179 849.02109 860.06704 857.40168 853.24905 864.77433 892.04696 922.80946 948.44711 962.13288 950.70294 925.97265 882.96283 861.19514 807.52810 749.97710 714.70310 673.46648 606.01834 540.79469 499.80566 495.92020 498.96745 570.34004 597.10636 646.95315 665.97849 621.88864 550.19652 475.76953 424.45747 410.75526 376.83541 410.08032 379.21612 347.75885 266.51447 201.85165 81.45473 11.88788 6.11752
6.82123 10.54670 105.62241 211.95251 271.25704 320.63490 350.84661 381.12150 400.75267 410.10243 351.96876 390.62647 428.67148 406.57235 475.91649 474.60855 454.18322 430.83173 449.00626 497.38281 556.49509 639.16131 679.37839 753.35401 775.24541 815.88216 825.71535 862.03120 908.27710 924.96098 943.75036 938.14924 917.94904 847.20015 826.04837 786.31571 728.09357 720.88659 745.13237 747.81702 695.47946 627.28151 605.87962 548.47806 625.69498 673.21141 683.67598 691.96626 697.74644 736.16878 808.16976 855.96205 891.02041 866.17074 815.67429 772.81779 714.08719 681.44183 601.16478 494.64223 415.26168 362.07525 429.79034 541.29377 626.31532 659.10292 641.35828 660.61359 725.64769 758.64786 839.33908 870.39507 891.92088 883.27862 843.98292 783.36062 665.38720 629.07350 620.95889 578.70793 577.95272 533.01145 483.40491 408.70866 405.35604 480.23414 540.11333 602.44264 675.54686 747.50598 804.01126 870.80515 886.30290 866.61964 824.39070 773.05893 691.29675 639.51739 532.37502 561.37990 635.99320 695.93181 704.66493 693.71273 732.79616 791.45115 851.67568 886.52206 874.45817 851.25087 818.90279 794.61594 777.02527 743.39756 679.65515 588.88661 515.72598 426.62546 344.36404 374.14441 391.62634 393.66033 448.57561 552.66438 614.08899 702.04860 756.68857 816.25074 858.77309 883.39386 872.33438 770.60578 710.69016 625.81483 556.39099 485.51998 414.66334 468.69218 540.72798 573.74429 636.02839 666.15726 646.02432 631.61198 668.50742 742.53460 794.59649 813.14939 753.31246 665.34402 596.26374 529.35146 518.04894 636.72111 672.49137 688.81872 690.53431 671.11210 668.64170 750.15977 787.40161 799.94067 803.17189 828.22701 838.97002 803.80365 804.13535 836.25339 877.21922 920.45604 947.55423 952.22987 956.02522 926.27326 907.94459 855.61838 812.88573 735.56883 679.76651 639.88212 601.61087 604.70431 576.77639 569.89483 550.17707 636.02302 675.16432 709.48407 706.16193 671.99771 589.51255 536.05971 522.09450 495.29640 463.58032 455.18521 437.20323 362.83372 296.18657 170.79141 85.81875 11.46234 16.26330
12.40628 10.27704 90.71933 173.17578 211.99585 239.02366 243.73533 271.11815 280.89019 335.61710 321.19636 312.91181 367.50224 344.61735 366.95670 400.45992 376.53137 385.27804 426.03417 503.00402 553.08352 603.65560 703.02492 766.82255 832.05226 870.29024 874.71976 901.33213 923.01489 933.04158 938.34606 936.96390 911.87396 874.06800 798.83412 756.69689 700.70360 658.95541 684.11748 691.20042 695.59958 605.85006 584.77012 540.38461 536.69421 603.09472 633.33339 647.24581 653.99314 720.44606 778.57459 844.59798 882.17093 875.49078 827.67653 780.24228 721.18505 664.32430 598.29750 513.00284 423.60751 364.89166 441.71928 537.25102 612.68313 591.88020 594.30930 658.16979 722.50292 776.70896 814.52527 816.66602 853.30772 867.95231 841.27426 769.45727 691.94733 638.28166 589.02182 517.36556 521.10262 517.06004 469.54617 395.71678 411.50308 499.46131 569.97966 615.43407 704.50673 764.33825 824.17727 855.78368 867.97529 850.95498 811.02668 762.58235 674.55216 580.83105 524.58654 554.19407 616.23122 637.67451 645.38780 644.71698 694.83066 785.27675 839.92644 855.22547 854.03016 810.12850 750.12085 752.72666 741.20048 729.57928 688.80540 632.39823 555.56872 481.55085 390.86868 334.82157 327.70938 385.27150 451.66035 522.53395 603.14272 638.70970 741.66211 795.60266 831.02827 874.83350 843.68024 805.48717 707.91162 628.09592 568.38348 475.11219 434.66686 395.95182 472.07064 526.65084 591.69221 627.12065 580.53364 583.06817 652.72732 727.67223 795.93979 796.13128 713.85990 648.78376 592.22934 477.04605 519.97945 588.02970 633.75259 636.31245 612.85415 621.96268 657.85704 747.49635 782.76841 792.31702 773.98629 784.71928 817.19811 778.90723 758.51489 803.67383 842.37650 906.49461 939.25884 949.21128 952.89167 934.33444 910.84412 866.23419 818.98050 752.76359 690.51717 659.56409 659.37124 682.87946 649.36240 608.12935 618.64422 675.94634 724.50859 750.54222 741.01052 701.43866 643.19985 606.44316 549.87477 523.18777 460.39782 410.99194 400.31846 336.64630 291.44453 177.90158 115.02659 5.81004 11.59880
12.38867 6.68375 62.95643 106.70904 138.29483 141.28451 163.69918 202.25706 217.68829 216.86213 222.03364 256.43499 276.75455 279.70746 298.42222 346.78424 396.68272 451.59643 444.43261 504.28553 542.64274 611.23967 683.79731 780.48164 832.85138 879.00651 900.66886 921.50750 925.92754 918.60802 916.92065 909.31439 910.86864 873.87701 826.34180 770.69633 709.07906 656.99829 606.69257 654.99856 673.08952 627.80821 568.85304 515.51226 492.78739 538.18289 542.93384 585.07356 641.94356 723.10739 799.51241 843.19305 880.38971 865.92663 820.78754 784.66540 671.40697 624.79084 552.08296 473.03396 402.86148 353.58810 445.58386 501.79834 569.46253 548.14857 581.72405 665.60057 710.47842 745.20742 751.14902 770.28501 834.23429 856.08871 838.05831 807.42485 741.84917 681.42074 609.92071 556.07040 474.73278 422.31832 421.73636 375.68996 401.01672 483.21750 574.96844 639.32786 721.99095 764.56435 831.74525 865.06174 861.79433 841.82048 768.97499 730.79669 661.21291 596.00143 515.36082 524.04736 539.51043 553.82958 597.76705 657.22137 724.82940 803.81296 843.37528 859.57302 833.85933 778.10404 741.51977 671.66266 666.10328 663.17975 667.56096 633.99911 569.58019 532.46378 471.03771 334.11731 361.70825 447.86479 513.78403 554.38640 606.26090 654.49282 705.28635 782.10633 846.04442 873.19697 838.97282 761.79827 709.22780 647.30918 580.39770 497.43859 427.17209 371.88478 431.12399 476.68472 539.61644 542.63069 520.85218 548.07659 681.36266 731.11816 796.52768 790.32913 729.44719 622.38869 547.49462 482.88302 489.25111 543.68456 552.42060 567.80532 546.66570 606.69779 675.93069 752.14057 775.64311 752.22293 729.67522 738.39191 755.75758 717.13987 749.55310 787.32839 849.51839 895.27872 926.33914 946.40419 928.58284 938.54667 922.24568 871.78308 807.01361 764.19987 717.36697 720.84480 734.89301 750.32066 725.53799 666.89463 695.09380 737.87008 759.31890 771.74711 747.20925 703.57718 648.77352 581.56901 539.99283 468.23099 400.29418 363.30193 281.24528 262.93019 230.47569 145.26174 84.58209 10.56755 10.02600
11.66510 10.36540 50.72878 87.10325 98.68982 99.55642 159.69997 163.91470 204.21031 256.35610 288.89348 299.19721 289.54820 325.84896 374.00014 432.29910 475.64086 505.77549 526.07697 544.49199 594.99740 631.72096 699.70627 743.81814 818.04743 877.24898 908.31087 924.06715 911.22809 891.53976 871.89484 880.92012 890.91795 883.26234 859.44949 804.64321 744.14768 677.79608 613.35406 602.04077 634.43953 618.86641 604.50780 538.45851 465.20997 473.10231 513.13587 571.54172 653.20055 712.35344 793.66390 854.61104 869.72023 838.61371 799.19196 754.22032 698.24891 578.68986 533.92835 444.28027 391.06732 322.10409 401.67505 480.42252 524.92339 491.64486 571.76503 637.54186 663.56707 673.99955 677.37517 726.26139 796.86810 830.46359 858.19908 834.56158 787.69633 687.98939 612.11941 557.50508 482.61399 411.91703 371.36085 340.92386 469.44736 533.29856 581.85195 643.60385 711.94169 757.31304 796.46776 855.17976 856.58190 819.63428 749.09552 699.42313 662.40481 589.28589 514.33279 442.08828 479.89208 529.71665 578.33823 650.01837 738.46795 809.20753 851.40175 841.14238 806.10316 744.95268 710.16601 646.69526 593.16204 570.83075 599.55705 593.86515 574.50403 522.15007 454.61394 345.33527 348.22388 456.02375 540.14272 582.37716 623.77092 658.35569 731.72793 786.57526 849.53585 859.99577 825.84607 761.20391 710.16129 623.72892 563.44644 502.16289 426.68175 377.77000 385.97803 458.81338 483.86871 450.63613 495.09642 593.30000 672.92062 743.38371 794.03941 774.69221 723.32220 634.07747 555.53892 485.96198 437.68420 478.13497 471.82392 475.57753 531.31287 614.51723 704.96751 753.60228 769.15825 729.58149 692.19823 675.12602 695.67653 668.97764 712.69007 781.52815 840.57058 889.09201 912.93025 912.25959 913.94742 924.18476 917.33360 895.91947 854.18823 843.49145 767.62460 781.86087 789.66561 809.50054 765.43842 743.55091 752.21432 774.89445 780.80960 766.64003 713.39251 668.11643 606.24956 529.26425 480.84919 427.40714 332.41882 257.15731 203.24016 172.47479 151.73241 98.14887 68.72351 7.94177 11.10317
10.91919 11.52543 83.23027 147.06112 195.72414 178.92085 247.43487 257.11695 264.75689 333.99279 382.31968 402.34304 362.16531 348.31362 425.18736 512.86485 561.58330 584.32081 616.66150 622.92779 653.39955 693.87487 734.06003 761.67698 818.92499 877.65063 905.66672 902.25697 875.76421 861.66471 834.69883 852.51116 870.61552 855.67617 848.88610 802.90663 762.97564 666.08987 598.64928 542.17014 563.11398 593.52051 591.83391 523.49453 469.22510 454.86052 551.34578 623.00870 697.52640 729.26348 830.41324 863.54836 863.98488 831.30446 784.55627 711.15526 680.55136 620.02972 556.52701 477.65180 443.57397 325.96883 372.67507 448.10652 457.92995 442.61976 506.12438 564.99577 583.64757 594.50294 651.20607 709.88308 791.59259 832.06454 859.20728 818.64838 789.18099 703.13922 668.76212 563.63449 511.76623 430.27588 371.28262 383.91620 444.52494 522.23450 531.63186 584.09811 652.70591 735.19327 761.10574 807.43080 831.52201 787.20841 736.73210 657.28077 596.89927 566.80854 525.08946 435.21242 450.87131 596.26243 653.44362 716.22751 750.37440 817.25182 843.44770 824.78342 764.84579 700.59610 629.27479 618.24358 559.60997 500.29787 504.70139 531.20580 535.95522 489.91324 412.53560 316.52269 334.32324 448.15242 519.09617 543.00100 580.30604 628.94877 701.85948 771.88734 835.10646 854.46629 817.33146 753.90355 690.99284 636.80543 589.46397 539.64995 466.62061 402.28234 330.07234 369.32625 393.08653 450.09283 522.02893 601.43373 689.00757 743.63597 781.31958 760.16061 712.63495 614.73924 546.79508 459.90813 418.71911 450.19675 454.06909 514.43340 585.53196 648.09012 719.32347 767.80383 756.49632 695.66537 643.93614 622.01951 626.27555 673.70147 726.36912 798.46503 850.36821 878.04162 900.77847 889.77323 872.37330 901.99537 917.47719 913.62995 886.55808 871.39228 839.12166 837.94538 858.68244 841.84727 838.82428 811.15397 801.67079 804.70781 774.44731 702.62165 656.15896 619.21068 530.08721 487.32109 403.94674 355.31132 317.36048 278.16025 272.85226 232.52555 187.72509 127.21555 102.62201 11.04021 13.41713
8.28860 10.97704 118.06745 191.72328 276.01567 300.33395 320.07581 353.80706 361.32368 404.38269 442.64600 481.01790 491.85079 459.94019 453.38419 509.99405 585.11829 651.19975 676.78182 680.17235 725.78170 773.71164 809.20639 839.69200 867.21123 903.16932 901.27087 879.09720 844.48460 823.29874 777.91519 784.85678 797.76270 827.21492 848.22218 802.22764 757.28196 664.70047 609.59872 534.76010 497.21116 543.07286 542.50572 475.89598 411.35094 468.08381 550.64003 610.05527 702.55528 768.65375 820.85235 856.84674 869.60657 830.31249 792.53869 685.98768 637.78131 598.26727 545.25390 472.75387 440.36795 369.78631 318.65430 409.92140 412.54414 410.77015 460.91482 483.95524 500.13333 574.08387 632.83972 695.09186 787.77929 830.24058 846.63895 817.49081 769.39024 718.21135 689.00654 636.74331 553.60338 467.52816 354.93312 346.62627 425.28187 475.07914 474.34379 553.49143 579.73002 646.12919 725.34404 791.07185 817.88113 784.05908 700.26127 642.54716 572.80137 484.40682 442.99315 445.41204 503.86369 594.37031 673.74079 705.72979 758.46287 790.54255 833.79846 811.03650 752.39622 670.46519 580.55658 549.32842 514.84619 473.77579 424.02119 457.20617 491.65152 478.64280 381.85748 298.34888 309.21562 375.68769 413.53635 472.99576 519.36858 582.14873 715.16671 767.11701 817.07004 854.25915 837.77634 784.37284 705.11049 641.69618 580.99304 523.49008 452.55646 417.46188 354.92314 318.32274 347.13745 505.17635 550.03263 610.69144 677.47980 729.23707 778.87610 776.30776 679.68357 629.41648 544.18974 479.06918 402.90050 411.10899 468.67518 552.62216 628.41460 689.90402 731.54970 757.76957 728.69951 670.82554 621.46039 578.96867 633.12362 706.70620 773.51989 815.71471 858.90694 880.23635 879.18382 857.79054 838.23629 860.65293 893.90593 902.45583 894.40817 884.66032 857.36498 867.54296 875.73502 881.11302 875.44006 847.86523 844.46689 805.33406 767.61234 699.00365 640.46400 548.94290 506.63349 452.48688 424.67222 408.76242 415.24986 375.36809 356.51590 313.60890 283.70072 206.62774 100.89556 14.47596 10.28553
7.57055 12.54495 125.70887 205.08255 288.60034 354.81637 368.56898 421.04244 440.93534 500.15929 542.29036 562.03353 565.04632 560.65139 527.22160 549.34523 605.45392 658.51506 745.02431 759.41919 781.73888 805.85743 862.95504 879.23758 886.74913 903.50991 893.06276 858.11898 798.54546 764.89304 727.80079 732.52379 747.61628 803.07506 821.88911 791.86165 715.11236 653.01912 567.48048 514.25768 442.55754 510.26892 497.84878 449.94490 397.18950 450.80209 515.88085 624.01148 687.61124 744.17271 796.42929 845.65578 865.83306 839.08785 789.59975 727.44056 625.63878 574.27709 505.51572 450.54246 415.30262 363.68831 298.39290 378.63607 380.99060 393.10662 400.99067 477.07189 502.15754 580.81077 641.81734 700.15430 793.86411 834.63935 824.08175 776.85540 720.25080 695.94093 665.87227 603.28330 533.92983 476.97938 383.91169 305.69162 379.01497 407.43956 452.38742 526.84602 573.40114 647.24967 722.33359 786.80242 808.82789 775.34831 687.95946 612.30058 558.92737 489.13924 401.94792 406.34351 516.09842 600.91718 634.71699 688.12464 711.13564 751.39623 819.86096 813.58716 755.40905 680.69749 591.03434 499.35002 439.73233 421.35689 383.68668 389.75722 430.78157 382.89825 318.68528 278.69258 338.86635 404.94668 472.46790 526.82808 591.27321 634.14952 696.32817 762.16040 835.82267 863.60198 858.41904 798.68489 771.75146 710.28901 627.76857 542.53169 473.97076 392.55968 325.79525 318.10869 371.22146 456.71843 524.09597 589.65977 639.77824 701.73984 751.29748 768.75801 723.35026 651.34150 554.98924 487.81452 398.37494 435.59246 510.92944 613.09231 667.33365 723.17651 741.27366 748.65842 696.96295 648.87096 586.26336 583.50963 652.36247 704.47892 782.91057 799.25583 853.73881 873.03091 845.30878 795.49921 798.17869 839.38952 880.64077 881.71237 862.44038 856.02562 849.48942 848.24498 848.26724 878.30817 891.14398 886.93361 866.18298 821.18725 728.98128 704.07366 611.98465 571.36139 529.50109 473.21049 455.90170 490.93535 466.85030 461.61053 412.23344 358.99984 293.15274 206.58384 100.90228 9.43443 6.47198
12.76691 6.96302 121.03756 178.81002 269.67238 341.62772 380.49310 466.78138 516.17646 552.59008 605.20123 645.59227 669.41339 660.60974 608.93308 625.83832 647.32408 708.14682 771.54361 809.63168 837.88367 852.86248 871.38035 881.43862 871.85586 874.26186 873.13307 827.64282 797.06783 725.39472 690.84214 679.60787 710.11398 760.39530 798.71461 793.22236 719.77093 624.11601 539.57339 463.19829 406.67687 443.90259 458.58085 389.22130 365.27165 422.78388 491.70740 581.57165 626.25512 728.35426 757.69973 842.59279 859.60897 850.18084 734.88921 703.47167 587.88237 531.26910 463.85355 416.02260 364.36373 323.54799 281.14069 323.96296 346.44702 367.42232 442.06648 538.14769 592.71728 633.18701 682.67593 734.49187 802.24365 835.36682 838.95502 769.75263 709.43361 611.40868 608.45301 543.67007 530.66421 455.56374 375.62477 302.24053 313.26993 318.55174 418.13327 468.49983 557.98018 665.20654 735.73519 788.32179 808.66907 757.12233 679.84577 603.51361 525.01981 494.76232 399.04441 412.98859 481.02131 565.98077 586.81191 616.73887 676.80989 761.96271 810.41323 805.73144 775.15224 706.18880 639.03739 533.87571 484.88211 410.49676 349.00141 336.02578 332.45954 312.39616 289.69331 282.76406 372.06080 475.34479 552.38757 601.16118 619.08498 690.81625 751.36525 812.19208 854.50960 862.68007 870.39217 845.61483 804.30491 752.44144 666.34342 584.49748 501.12870 406.72424 321.57282 297.75758 362.76974 434.30338 511.35258 525.60161 600.89991 684.10894 756.15494 762.05465 689.18653 646.09625 532.54356 464.21445 382.37729 414.04539 509.44581 587.18318 645.43388 694.04151 707.72091 718.90130 680.59362 616.25601 542.50513 572.69454 629.68193 683.42767 748.68907 796.66275 827.79067 848.44487 800.75868 774.40647 764.10621 805.51513 832.74789 840.00111 826.37991 787.92713 764.66860 798.98445 830.89429 852.36929 876.45921 895.37548 880.58900 841.96384 796.79760 739.82752 676.19056 634.81905 604.44377 581.66307 544.09653 572.03736 548.76958 515.88545 430.45538 352.51209 264.60802 153.95173 95.36258 13.12608 13.63840
8.73087 3.24955 98.10563 145.94999 194.88254 283.23650 378.79052 446.46795 512.37808 547.84756 591.99030 642.25242 699.54366 709.02716 694.81130 697.35001 727.15995 747.53110 806.91578 856.40774 866.50768 862.44009 855.80601 841.21356 831.00009 860.77027 853.53517 812.69461 781.92492 724.32500 652.67867 625.08739 679.10539 753.83774 775.06643 779.95092 728.47614 647.19996 541.10987 472.16324 374.99365 389.33331 388.45554 355.50590 373.19791 454.61761 522.61678 616.16097 675.06041 717.19824 778.14252 836.26077 845.11002 824.18235 753.17493 687.70349 606.08345 525.75557 460.73596 400.90949 323.30192 304.95699 247.86271 271.18899 337.70431 413.87264 484.98524 579.08523 622.44897 707.37283 742.04304 809.23806 835.08123 842.35854 818.12592 727.16998 669.93595 590.59776 516.14514 461.39476 452.55876 390.10069 386.31882 353.86226 256.13311 296.19776 379.89558 471.02181 557.47115 663.95627 747.35761 793.13569 802.99130 756.92354 694.66264 613.19616 530.75981 447.38741 386.40014 396.46944 436.56878 493.60172 521.75896 581.20516 664.06361 736.19041 788.40383 796.97241 764.03217 709.03626 667.69610 586.31213 539.31733 452.02969 362.13880 291.44291 252.68493 257.23552 286.48349 331.01590 401.26261 465.22190 557.39555 639.48770 698.40156 739.97628 776.73263 818.01026 838.30586 860.51002 875.82699 862.91676 817.60791 756.54643 686.71862 622.66760 525.59075 414.56727 385.67507 314.00203 316.00084 399.56928 437.51109 491.98248 600.55885 665.53096 732.83616 749.01060 686.06274 607.02610 530.59735 435.14601 356.43539 392.00151 482.67985 538.14636 549.56643 609.84887 668.05983 686.22490 656.80451 598.72266 509.17981 532.93195 607.31522 649.44276 729.72769 785.74066 842.88058 823.97744 782.14991 718.83205 718.97959 757.66583 794.03178 779.44735 751.51060 750.01507 724.33293 738.58177 768.11963 816.35454 856.88353 884.71275 886.45745 868.02448 818.94413 769.50872 721.47349 692.87302 668.01747 644.08010 604.06518 593.60474 569.17703 515.58728 425.00962 371.81203 271.49257 217.54575 104.52757 15.62759 13.34930
13.62688 11.10119 90.52892 134.52103 200.47171 265.13183 305.15519 410.20933 435.86029 495.66586 555.45838 620.07224 710.37630 743.07351 775.04018 758.84910 798.33424 809.75464 838.44806 851.50823 863.14199 855.31816 809.71008 793.83830 773.46600 820.31400 833.38886 810.33104 734.43305 696.45341 635.09381 588.22578 652.78805 708.70125 752.50710 773.48168 716.49544 658.90701 563.37704 511.46755 437.71779 343.71679 335.41079 365.40110 448.08072 520.89499 585.90956 619.85159 674.03281 731.47760 770.25535 806.80259 838.89173 834.71570 798.59076 725.55200 645.64667 601.29816 516.07854 429.24828 350.71479 293.75444 239.92189 269.10551 361.57750 450.09105 518.43719 585.09477 655.07806 733.06925 795.34056 825.67988 836.80785 842.03295 821.82630 728.91204 672.90630 646.23186 575.86983 483.87517 395.81156 342.01410 308.18950 277.29923 255.95204 325.18487 370.54778 496.62111 564.20895 707.78750 754.02048 785.57007 792.67591 746.42962 705.20969 623.28530 543.18321 452.84855 373.17301 358.31068 419.54721 435.64572 497.23108 566.43263 668.72244 735.54029 779.17732 780.28171 730.95212 681.82313 629.68470 589.65248 559.03091 504.67867 413.99677 313.63677 252.08853 267.87030 365.12959 382.69691 413.51046 499.00592 571.82880 679.11001 719.78197 748.72370 777.76417 779.41190 792.61986 819.54692 846.46897 860.44431 830.93712 783.22541 719.04284 604.95774 532.22716 482.72266 418.53898 331.06891 269.92723 350.03065 392.23713 470.97125 554.62760 618.06919 702.21552 724.76051 680.31342 599.81504 524.88376 421.28844 344.61700 336.73599 427.04486 454.36260 486.69484 546.22562 648.36591 657.49529 593.59844 548.68921 463.27628 537.61389 563.00555 613.99540 678.35911 759.65315 806.20184 800.79170 759.88279 700.33064 669.12333 708.42750 756.88059 739.45677 692.48248 664.86735 638.61395 712.08421 725.27857 781.78036 835.62149 871.37179 879.64853 865.71414 838.49735 783.97263 751.15104 720.91710 692.43160 639.01033 586.07837 534.61189 508.85758 459.14369 405.37247 361.68780 298.01068 221.69661 102.81046 11.15811 15.83293
8.94983 11.11238 118.57075 223.94921 257.35819 280.29334 317.23200 368.99958 433.06919 536.57622 578.19558 650.64512 716.73384 779.27485 810.88651 808.64414 810.64990 808.27359 798.23307 829.48634 829.31672 792.37451 751.35096 711.64465 716.32962 757.79918 797.40312 771.08535 729.87217 660.68300 624.35700 572.66789 591.17457 653.70784 717.16505 745.71906 723.08531 657.44006 562.66607 507.33671 405.19934 337.47019 295.72758 379.75283 477.55982 561.41495 598.51073 601.83065 617.01867 682.16529 741.56395 784.86922 847.76841 847.17900 811.03787 752.11183 685.09253 610.61079 561.81346 474.40970 384.05183 322.87848 255.14323 249.64789 361.60854 401.29614 492.24728 559.58946 663.20365 742.00732 785.32195 810.47819 819.15764 816.18184 808.04445 792.64502 733.48150 664.03424 591.27575 504.87772 444.76480 349.83024 279.91530 228.21471 299.92823 355.53418 423.93971 518.98180 578.78923 686.80976 738.24217 763.43970 749.84106 739.23187 695.07067 619.45825 564.94740 479.44120 398.71045 318.28500 370.06271 449.29259 555.84699 607.33159 684.62538 747.12148 780.30596 742.54200 703.24691 644.53216 604.28871 572.57425 536.19571 476.19676 405.99971 320.46068 234.66526 291.23673 357.64895 456.87783 504.90149 571.84193 636.66249 698.28660 737.71642 750.20754 741.88257 736.34312 739.17138 766.98977 822.99261 845.45951 841.00248 770.06636 690.48961 614.17216 519.75761 469.35979 381.93372 314.15696 243.87278 277.14930 362.00915 429.62290 520.22178 643.40933 713.00847 734.42463 691.78216 594.30062 513.49996 450.50752 412.88534 364.49455 353.67509 366.48963 428.74262 519.16790 619.14667 638.15302 584.53460 519.02431 449.51253 503.88760 530.24190 608.72802 673.20373 754.90602 798.23920 755.52760 712.94467 670.20519 624.47734 668.70291 725.50005 716.22366 634.91588 588.67861 598.13957 637.30870 713.63518 731.72433 797.71257 839.01868 865.90989 852.47167 805.33667 744.62430 706.69702 676.43060 644.99325 597.72879 567.87698 498.77421 415.03537 378.31476 338.98155 281.57453 242.85631 195.18808 93.80136 9.86966 7.34139
5.79512 14.36575 113.06076 221.09909 307.27432 367.36532 393.23758 449.66732 519.36305 589.31181 632.07437 682.64345 749.45260 812.90500 818.19009 798.55347 769.12366 757.96093 757.89279 802.34014 811.89294 756.67861 723.66997 656.36090 689.66027 707.91531 748.05580 750.33116 684.07691 621.75189 561.67382 527.23585 545.17247 610.27668 688.29505 721.04120 700.80515 632.69932 557.13789 471.32389 401.13321 326.49959 317.40382 395.15766 494.94067 550.99413 578.91132 574.89976 588.66639 634.69287 708.28527 778.06263 818.72837 830.19620 805.56236 777.58192 732.26849 657.44786 578.86560 500.54292 434.43548 345.06863 247.40243 265.82637 310.04717 410.79820 500.47687 567.24963 667.00189 725.18952 755.15714 765.03363 771.45460 775.92460 785.89725 765.13835 744.97213 666.98803 616.67487 565.72674 506.32988 391.87718 287.74244 267.54563 338.06160 405.07279 454.22011 553.44037 614.36950 687.72313 738.84885 733.66696 701.80505 699.99198 650.14746 607.08995 520.48074 410.25131 356.41507 328.66820 396.28548 481.75903 553.91933 639.33630 708.92001 752.72361 772.55300 714.21699 629.49155 578.54619 543.37605 498.33764 461.90348 423.16712 327.62827 258.95984 210.30641 289.80684 364.53629 474.89894 551.18283 625.17444 676.88159 728.16073 740.89949 733.94150 686.45207 646.49353 670.01052 764.49351 793.06416 832.42710 799.04202 744.00248 654.08195 575.26390 504.23073 429.98846 351.69496 299.65810 222.68034 292.21924 385.58199 471.92136 593.50119 629.91941 704.04242 736.54982 701.40073 633.87914 599.28148 526.33208 432.46728 362.37009 279.05210 322.67691 406.12830 524.62556 602.68545 622.97923 564.24355 497.60699 419.93668 452.53365 546.02493 619.52393 695.93271 740.90020 769.94668 745.51089 664.69785 596.49565 575.11983 639.42298 679.70558 662.07914 587.62252 535.55195 574.29135 618.91784 678.76065 710.31109 750.53126 802.66902 845.72621 837.59203 782.17191 705.55541 654.70958 618.82074 586.42564 535.05420 497.06408 412.12494 361.77093 294.69837 240.49870 210.09833 165.02803 149.38940 79.78959 4.86675 6.26953
10.06124 10.72094 100.92254 220.07833 294.26572 372.11186 425.62893 485.55576 532.59167 593.60723 667.51148 728.86734 772.35945 821.38360 803.17885 762.72950 697.38768 672.84676 684.24329 723.24100 780.22840 741.69497 694.76279 627.33903 599.12023 669.46404 709.68701 728.72961 697.46794 621.37490 561.15642 468.99699 487.23605 559.43842 657.47886 689.86159 699.91321 627.61905 550.06596 455.93125 346.27946 301.71767 289.04562 388.08220 449.27008 530.39274 526.17814 487.75232 555.79657 599.46933 701.26323 749.29895 800.40018 798.28889 787.63836 758.65276 723.74902 677.30047 615.64945 556.00349 451.55794 326.15670 233.26057 251.74044 273.55004 432.78471 483.72585 578.61220 662.69591 716.04895 728.90684 716.58941 693.36888 696.43373 739.58547 735.92320 694.01005 623.05270 577.25806 534.18314 476.52962 412.66984 294.40816 244.54765 328.86623 409.97991 483.71743 579.54574 635.84360 702.28802 724.33992 693.06024 670.59779 650.87562 637.14771 566.84574 498.14534 392.95537 293.89161 350.90687 427.36177 488.08653 532.09412 593.49793 664.43958 731.60188 762.42046 705.28418 628.22068 541.90379 451.74079 400.45422 381.87978 391.11718 302.73358 195.57040 222.49716 336.75974 409.39438 478.68074 531.15394 615.15386 677.31660 723.65455 718.00577 676.93138 632.89624 604.08127 633.78610 718.58887 778.55773 784.84533 766.23526 712.32738 639.11081 583.39883 506.21084 395.84522 327.05876 270.16767 226.49801 296.20821 383.57870 478.31187 580.96656 647.93887 713.17693 742.74507 725.99506 668.37435 605.17850 547.93936 464.39035 381.66921 288.74179 300.47577 414.08509 515.94687 577.61354 579.40446 537.05912 453.79422 425.43908 464.71927 536.01192 571.42517 675.82351 719.10789 742.11789 696.31274 627.23702 548.08149 545.01632 612.65343 661.91080 639.06443 561.65381 503.21381 551.01864 589.53702 616.77288 648.40589 717.95324 776.58634 816.47584 834.54595 766.65544 716.61544 627.73707 559.37134 496.88145 457.58038 376.77262 336.11340 284.60461 269.09696 224.64332 179.08503 147.75041 149.27055 68.48484 11.72435 10.04128
12.25065 8.46514 103.04233 167.15100 270.36653 321.31593 359.73592 431.14857 493.73300 556.55152 644.24680 726.17689 784.37045 804.47332 792.29911 714.22259 671.45552 620.04871 637.36315 668.37351 738.29487 735.42034 677.46853 608.99380 540.50039 592.93051 630.62856 680.38906 687.88326 643.58104 567.27164 469.16702 446.20595 532.79473 616.99285 667.51470 685.04388 654.34263 537.70130 458.35906 378.12383 289.80325 263.86704 316.09921 425.64751 484.45280 467.92365 446.79271 541.53523 590.97447 684.80257 738.93747 753.82027 716.55845 729.35543 715.97533 707.27041 677.97919 626.90023 532.54127 468.69542 309.40664 243.25452 207.22979 312.96051 389.58069 455.94775 563.42687 616.04849 673.34207 673.52816 644.53072 609.21733 645.48082 660.86382 697.82615 675.87083 580.91944 507.15143 445.67772 444.15315 379.70512 300.79922 231.53696 276.63727 355.45378 445.38236 542.86018 634.50958 671.44379 687.51368 646.44243 622.94362 603.29780 619.89734 553.07497 502.33695 327.17416 266.39078 321.71745 386.26430 425.92726 503.99514 596.99756 672.70999 722.84854 746.47159 715.36795 625.29594 536.78263 433.63382 358.98733 311.10188 298.84183 257.84186 173.22302 229.42748 313.90483 394.95868 418.55355 506.88789 615.16347 665.92550 714.51546 697.13059 632.32561 571.43051 575.94707 659.92557 698.10825 760.51079 763.77080 739.33887 698.95074 652.94289 595.19219 519.52152 427.20269 349.33224 244.48908 229.22495 298.26859 377.27453 448.46075 534.49120 622.31182 700.17023 741.27308 733.16148 667.80991 576.41322 493.95734 415.68833 374.18695 276.49756 294.26599 385.93586 463.21156 536.29575 549.08860 506.80682 411.17348 381.49491 429.58285 486.48346 575.76413 635.58727 697.46538 682.51363 633.58730 611.66465 530.35312 534.02122 616.52615 650.15005 629.84209 555.64252 467.65852 513.91981 547.13358 551.97668 612.32783 717.34468 777.54245 820.11892 818.36622 780.30408 686.29853 657.41052 558.68855 488.32341 435.42844 438.55949 397.11388 368.38392 298.34879 333.78715 275.52179 248.60877 174.57213 84.86120 13.29713 11.12692
