10.00000 10.00000 17.53414 20.24703 28.97752 33.62344 29.08398 33.72711 43.71498 49.00094 49.30420 56.37680 67.23356 71.86125 84.27411 81.73365 80.35028 86.06847 87.79425 89.01280 82.35470 68.09915 67.27223 77.56340 66.45789 57.96084 52.80625 48.48609 61.45980 76.30913 88.08058 90.05777 94.71787 96.16296 96.56260 89.63741 79.08113 84.33475 87.18215 91.61468 95.61461 105.54622 106.31577 100.69195 90.64062 90.56558 87.28527 99.64138 99.38599 89.78981 96.29355 89.61053 93.59943 104.15199 101.15676 86.46810 84.74159 91.24825 84.70720 69.94804 73.80322 73.67331 85.25819 94.00315 83.81712 71.81047 61.90396 58.80250 57.55486 60.00665 77.53215 73.42022 56.38315 50.73570 55.86634 54.48920 64.00847 69.84441 75.22633 81.38022 94.55518 104.32083 104.76941 106.30357 107.07201 98.66658 94.66712 78.82695 76.13794 84.54908 98.07594 103.48322 101.06048 93.17095 78.46398 67.43450 63.36845 62.11910 72.26993 86.92567 82.83768 67.33758 56.60148 62.97362 63.54187 73.88830 87.28961 77.46285 66.41687 70.99603 67.77327 63.98065 76.76828 87.31244 85.24908 70.75594 81.53626 88.38282 101.79567 107.19774 94.86665 83.90193 84.45866 90.08965 79.06552 80.73960 92.90913 103.61333 98.96743 89.93188 85.18166 71.77263 63.85815 64.00634 71.14489 60.84121 64.78503 66.04677 54.28125 62.25836 69.12290 84.29229 94.49616 98.25325 86.22183 76.45487 68.87635 67.88423 56.46901 58.49244 58.65218 59.81718 70.39567 79.53543 89.50009 82.74803 83.95624 95.94481 104.36121 101.02151 90.85384 93.82915 88.60971 82.20968 92.30232 89.36703 77.37116 77.50564 86.40184 78.37517 72.46611 77.80053 84.71018 88.23363 92.44624 86.13949 88.05643 84.13064 82.49007 78.19735 72.22250 62.65258 49.37253 43.42603 51.94264 64.22734 69.26179 55.26802 44.03257 43.33532 38.90690 39.24156 50.30055 59.06749 55.95758 45.34055 34.01988 29.59430 28.78997 29.14273 20.48741 10.00000 10.00000
10.00000 10.00000 22.36761 34.90626 37.76316 42.55276 34.07918 36.35503 41.16547 41.57429 52.26410 60.69685 64.59352 76.43387 84.22267 82.68433 69.60695 67.89525 73.28344 82.15907 81.66912 64.74749 57.58517 64.17920 62.11856 55.67937 45.82016 58.88158 71.11343 74.97890 82.91634 87.76953 93.30976 91.95814 87.20035 81.23372 71.46445 77.09078 78.16233 82.41641 95.43214 107.31502 107.60177 105.99779 101.30194 104.08776 98.10782 103.71201 104.60439 100.55834 101.23935 90.80533 99.47123 103.39910 96.18730 85.91679 88.18508 94.23168 79.28309 74.67462 85.56523 92.62320 96.23665 87.92514 73.81163 69.19301 73.12278 70.03175 60.57749 64.05784 72.35042 74.77198 60.54484 55.60659 62.85002 59.40749 64.13859 61.57783 63.10510 76.88671 88.83510 94.93590 94.67310 101.79995 106.57458 105.14095 96.74749 76.42551 74.26342 87.28971 106.01156 110.49089 96.98655 87.17497 77.05654 70.41133 75.29291 71.29030 82.75346 87.83469 75.81131 63.74310 64.33601 75.62972 71.08103 77.61104 85.10287 76.15630 64.44805 75.56895 72.29785 70.03875 74.17493 86.23739 84.19664 75.62138 82.67405 88.06902 108.13616 107.83459 99.01164 90.66409 96.72619 92.61655 80.49875 76.24229 86.98627 100.15612 97.96815 81.79979 72.72255 75.96374 77.34520 70.58422 72.52460 59.18810 69.59813 73.07681 60.78546 66.34718 72.81785 89.57761 95.72701 101.94827 91.09046 85.44257 75.39795 66.85149 59.45764 70.13156 74.80301 58.32331 65.45136 78.10204 91.75284 87.37842 96.61938 107.95301 106.27381 94.58527 82.50480 79.39335 83.32101 76.41459 79.91613 80.19063 76.41943 74.38379 80.91611 76.42288 63.50604 57.40071 61.41540 77.74090 82.09122 73.20484 70.04894 72.58843 78.37892 79.03897 76.09451 68.08086 54.23713 51.07562 57.12568 69.74878 67.41951 55.64093 52.01152 55.05489 54.22035 56.79100 59.33049 60.68983 48.67433 41.82564 37.52703 39.17853 33.30045 27.62221 18.83048 10.00000 10.00000
10.00000 10.00000 29.31535 35.08523 46.16847 53.79595 49.94833 50.09042 55.11307 57.76942 57.32768 69.06809 75.16576 79.86424 79.63363 67.07616 58.78236 56.54862 66.61871 77.32462 79.34546 70.59512 58.22331 53.87881 58.78513 44.87130 43.02461 60.84195 66.22935 65.40461 74.87809 85.09225 87.41866 85.47014 78.63525 66.19878 66.43098 72.26988 81.94404 92.83143 98.34424 98.96636 103.90978 107.28864 109.34213 110.08366 112.81359 112.55021 116.98799 118.13589 109.07092 98.36385 103.74454 108.75416 101.27802 91.58073 95.43968 91.94637 80.07632 91.99764 99.61193 98.97110 94.35940 78.17249 74.42226 81.58520 80.62943 74.13177 58.11471 63.10368 75.14187 79.22812 64.68701 58.33935 71.62542 72.37972 67.95556 57.58193 60.92912 67.41352 76.91407 75.85204 84.96687 94.55741 104.56452 104.18025 91.22897 80.79200 80.72897 96.82754 103.26088 113.10996 99.29283 92.79106 83.87428 78.50887 87.63164 87.65577 79.42436 86.40243 73.17088 66.16647 63.37584 80.39689 82.07564 85.02346 89.13248 83.57025 71.56581 75.10288 87.40203 80.83437 77.63381 88.30046 93.63540 87.39956 83.32065 96.88984 111.50576 112.19145 101.45797 105.50722 102.75835 94.55312 80.87035 80.65181 97.51374 107.99369 98.33353 79.65966 79.68170 83.77369 86.73225 86.64269 75.26427 69.29157 82.62602 80.10149 65.58018 60.12608 70.51440 75.56504 87.11304 99.19385 98.23659 89.45364 75.06687 61.10644 63.42787 74.35419 76.40518 65.92955 64.38901 67.05753 74.45581 81.71051 98.35973 110.14013 112.13491 98.56134 93.21759 83.77778 74.59068 75.47269 66.24103 74.54637 75.02366 62.86012 74.29513 77.88245 63.23553 54.91278 55.31803 70.78124 74.18009 73.86651 58.19143 58.31697 64.74284 71.21794 76.27676 69.35000 66.56347 67.10125 69.16812 76.13669 78.58823 70.82055 65.20575 64.21306 61.91437 63.29075 63.82278 64.99988 58.35627 54.43259 51.27377 51.08767 45.02700 34.61784 22.87495 10.00000 10.00000
10.00000 10.00000 19.56721 30.70736 46.02597 55.82288 54.94094 54.26154 57.62546 62.11440 62.65396 70.70694 74.09882 75.73785 71.55208 55.66296 48.07473 50.21855 56.66585 60.67422 67.58313 68.23036 53.28381 44.90802 52.32480 43.44401 44.87506 55.68061 55.63836 68.47003 80.75902 83.32806 81.40886 71.53487 68.33958 64.77751 73.05971 85.00757 89.34955 93.66426 96.60627 88.74335 85.80716 96.40623 106.70057 112.12958 112.12724 113.27325 117.69121 118.50705 112.35281 112.74982 112.86826 113.50496 98.80035 102.90325 105.81108 91.39608 87.16733 93.98713 103.31664 96.41243 82.79639 77.18623 86.19040 87.13548 80.80294 69.85122 62.67171 63.79303 79.22828 86.45551 73.97141 59.52992 64.72901 81.31058 77.28195 65.70847 69.05349 68.00874 65.17875 68.35159 81.98398 93.54529 98.28046 101.85178 94.38896 93.66442 84.35465 96.43113 109.68013 111.68324 108.29721 96.25586 86.52671 91.34066 91.71005 87.50452 85.08277 88.60354 85.45366 78.21062 65.79534 82.11774 92.18299 95.97797 102.95739 89.62109 77.76775 77.09921 93.41476 91.94169 78.79879 91.69185 104.88696 99.55909 85.40071 94.89634 105.16892 113.38413 115.37154 113.84474 106.70320 94.09449 89.76583 90.96464 105.32047 106.95044 94.57385 81.93526 97.34662 100.68345 98.97343 88.82139 80.81515 73.93259 84.94326 86.23161 76.59184 60.26201 70.20663 75.67204 79.44513 93.58449 97.46336 82.11141 67.56402 60.89979 67.00694 78.59267 82.39480 76.89485 71.90185 75.31161 79.90529 83.52846 100.62313 110.02817 110.57615 98.84227 93.38663 86.59939 78.01213 70.48912 60.31957 66.25400 71.72413 59.75859 60.50834 72.38747 70.27511 54.93095 48.96187 54.97594 62.63509 63.87427 57.75429 50.72698 58.34053 70.89765 70.56596 69.89877 69.34892 72.10389 75.82697 85.02555 85.35052 79.76059 73.78747 68.48975 66.28644 56.61815 53.14690 64.23353 59.44127 59.28474 56.63750 55.19551 47.17011 31.92254 23.98674 10.00000 10.00000
10.00000 10.00000 19.51358 36.02798 43.64501 45.93586 47.81527 47.52275 51.75672 53.06793 52.25236 65.82135 60.34387 65.54363 64.27029 55.86741 43.93056 41.22613 42.31202 51.83422 61.56483 55.60799 44.72826 43.88614 45.20019 46.37011 54.79999 61.44926 65.83628 70.82016 75.11469 74.28421 67.85289 62.22667 59.20089 71.55020 77.61601 88.89061 94.99308 88.91661 72.38629 79.47513 88.01806 101.58645 103.64987 100.28606 95.89380 99.12138 100.96479 109.30172 104.80225 111.72285 128.26770 118.30670 108.68518 116.60426 113.81965 101.52115 104.76145 97.36658 108.56774 102.68586 89.40541 88.96833 99.41166 89.36468 76.32792 71.28517 67.57393 64.89999 80.96901 88.59669 70.06081 64.40746 70.78293 81.30992 81.11218 68.41446 74.90090 80.71697 73.97384 67.75132 80.87153 86.73043 94.81143 105.15524 101.24435 100.85429 86.77685 95.75218 99.07661 113.32684 107.59923 92.64622 93.82498 99.32385 95.90280 83.49490 90.33359 96.82275 87.05742 76.01431 65.00353 83.52725 93.11343 99.35303 101.07058 86.05812 76.97613 84.62344 90.72543 99.07872 90.75423 90.97640 105.06103 105.53589 95.94048 98.10786 110.22043 114.84179 116.54693 115.95692 102.51905 100.27569 97.22514 97.86057 107.91145 107.72557 94.23773 89.47907 99.02017 97.59462 89.09595 76.36405 70.70592 80.06586 89.66064 88.43424 76.21507 65.33869 76.68134 88.95646 89.54788 100.90620 101.69193 86.02108 72.10516 61.75595 65.94523 79.35343 88.76330 87.98616 80.10221 78.83504 86.92938 93.72151 102.75713 101.88333 93.62131 93.64878 86.81497 81.48592 80.46982 73.07306 62.71179 57.10686 60.38200 57.58263 58.68092 64.96080 70.72984 62.06416 55.74135 46.15182 45.99495 49.68296 60.82720 49.20244 60.06462 67.28124 66.15833 56.69967 58.78808 64.17300 71.54972 69.35050 72.69048 60.32779 58.72296 48.33778 57.17725 48.57638 43.38679 48.90658 53.13804 47.21343 44.18705 48.39745 42.37304 30.09732 22.35046 10.00000 10.00000
10.00000 10.00000 26.15478 40.04373 41.49298 33.66879 36.79870 35.35412 37.19599 40.38311 48.84484 50.34073 48.88317 55.83782 55.35988 54.22036 48.33946 36.84726 42.22528 48.56063 54.53791 48.70546 38.48872 34.18418 48.13547 61.89032 67.50796 69.56462 70.15258 64.56718 69.74075 67.46394 54.08953 57.70602 62.97372 72.85758 90.63214 91.30389 89.60295 84.98361 72.62227 79.38011 87.44026 97.07155 94.91754 89.80220 87.11509 88.91602 89.00810 96.39961 94.49329 104.97253 118.97421 122.04436 118.66389 118.53624 118.25454 117.28845 113.78374 105.63839 114.27492 108.35092 101.81227 107.36509 106.84337 93.73817 81.69782 82.14768 73.44254 74.47146 83.12185 85.88845 71.20719 70.67702 80.46746 87.82807 84.52805 69.99677 74.77384 84.13858 80.09276 72.42613 78.54990 86.56034 99.46552 111.15976 109.92866 103.05158 98.41369 109.45142 109.31661 113.46012 109.76902 111.27304 113.42885 106.90359 98.21480 96.32932 98.59591 97.34080 81.74181 73.69325 68.61591 75.51954 82.81265 95.60999 101.88252 95.04193 85.35139 94.38087 105.07585 108.06894 100.15630 96.50787 106.99561 113.20192 110.63597 107.96409 119.15944 117.56032 114.15070 116.06685 112.43810 109.18201 105.72415 105.21938 112.45910 110.31373 98.69028 97.17302 101.70807 95.60939 79.35943 74.02904 84.20401 93.39359 95.57454 87.82635 75.85089 69.15216 72.04014 87.30514 92.76516 103.48898 99.54168 86.60238 76.95126 65.48411 64.72385 71.59552 94.34804 94.85612 91.50233 85.91565 94.24425 105.69305 113.45668 101.58123 92.15862 81.89122 75.92823 73.03260 69.35205 69.59286 60.97992 53.74666 49.41491 48.05529 50.23936 55.99807 60.27843 49.89161 54.16356 48.44567 38.18602 43.86639 55.11894 47.10116 56.66440 67.57875 68.67419 52.66500 46.29441 56.58901 61.22096 59.85702 58.16151 53.46236 49.56741 40.18771 53.23170 53.37226 39.93929 35.07026 40.28377 35.00231 28.77782 38.46238 39.90690 29.45774 21.30436 10.00000 10.00000
10.00000 10.00000 26.04815 34.44369 32.70168 21.73944 25.00112 23.47109 30.64014 40.51126 44.68962 37.85987 41.28175 54.33948 54.13518 41.00452 36.71288 34.27838 49.99459 57.57236 54.25409 38.00285 34.61235 49.43152 60.34124 64.06884 62.27353 59.43184 59.49912 52.60994 56.62498 53.79945 53.93534 65.64920 73.74564 85.61024 92.44017 92.55656 80.16553 74.22101 76.69257 69.92198 77.42501 80.51258 89.20179 77.94164 73.85203 77.02017 80.01807 82.38632 88.28232 97.45060 111.28705 116.57056 113.59810 107.03377 105.96628 110.93108 115.31181 121.03991 120.45581 113.56744 112.78265 117.26303 109.80827 95.49521 91.55190 88.74330 77.75206 81.89755 88.17067 85.82997 69.04278 71.97325 86.69553 101.19720 94.86774 77.29609 79.29745 87.68313 92.33932 78.94983 82.89711 88.05468 91.11650 105.55796 117.77810 119.67591 108.84630 112.42215 110.57730 110.68569 106.32639 113.61726 118.73858 116.38771 108.61602 109.99430 101.90296 94.78580 85.06972 84.56474 80.76754 72.40791 85.89948 97.35210 108.11966 96.63137 92.14707 101.24478 105.85597 104.13444 99.73665 96.88930 98.48980 98.25557 111.70095 112.13835 112.82412 103.87609 103.75491 117.41062 116.69951 118.23885 119.14377 117.20991 123.42909 116.51245 111.39602 114.37603 110.37698 103.09674 85.95745 89.35693 94.49156 96.15666 96.32212 86.95771 81.28872 77.92786 77.39684 85.33570 97.49791 107.61647 103.87275 91.29478 80.44566 69.93459 70.36772 69.93469 87.08157 96.09478 98.55719 100.70583 102.39162 114.33768 115.97810 106.34971 102.75515 97.32981 94.23925 95.69850 84.87786 74.69081 67.87797 56.74335 52.69032 50.95935 48.86148 46.13146 44.36065 44.92742 42.29386 40.13443 33.87504 37.48766 46.88231 41.03711 54.99143 65.45518 64.04971 53.01889 41.80930 48.72272 56.25295 55.59744 60.50827 55.46605 45.13733 39.39017 43.36464 44.66391 39.90351 29.72344 24.69796 29.20650 25.43197 26.47215 30.35589 23.95908 17.50892 10.00000 10.00000
10.00000 10.00000 18.51504 25.38676 20.64369 14.52675 15.02206 24.88869 41.08042 46.36246 39.46456 31.29314 39.21598 51.92166 53.90563 45.87223 35.43454 39.17622 47.07155 53.24584 50.80242 36.58438 41.12954 54.89715 56.19154 51.83802 53.95072 48.56896 46.58846 52.80727 49.69940 55.70337 66.60812 72.14370 75.77286 83.21875 83.98896 81.05166 72.84402 65.91662 59.54742 62.11963 69.88231 74.15243 79.63974 70.94486 69.29348 73.72648 82.12403 90.45388 99.02196 98.92753 107.31131 118.96660 110.31243 96.27093 90.96908 97.93788 102.06288 109.16094 98.43848 100.96795 107.76868 114.26921 115.72755 102.83236 100.34780 93.02704 85.46906 94.08192 95.34219 81.48953 76.76249 82.85455 88.00892 102.22439 93.49024 75.50865 84.35220 101.00678 98.26162 85.11575 89.28773 97.42889 95.44913 107.18105 120.45388 127.17618 120.71567 110.80832 104.95643 97.49908 90.88740 99.59234 107.32450 114.79668 118.98177 121.44692 116.13656 105.16192 93.50196 98.38639 91.64493 80.88546 92.06102 106.55576 111.52589 106.85159 103.65362 107.68493 105.78789 92.12717 90.99079 91.12997 87.27944 89.37072 100.79202 107.66440 108.08809 91.80130 100.20383 114.26129 110.04170 105.55617 118.12706 123.58350 123.79602 124.07219 119.55834 124.39595 121.14190 106.79814 91.85206 100.45392 109.43465 109.64450 108.47182 104.54303 94.31731 90.90832 85.83381 82.99396 96.27652 106.98699 100.14086 86.74734 75.98160 78.52945 80.61081 71.38575 80.04282 96.66343 106.64637 111.94107 115.80274 113.32424 103.50273 97.78719 96.28334 97.88988 102.58118 95.81403 93.27275 83.02850 72.17428 73.10795 68.46634 65.33248 62.24601 51.46170 48.74418 51.10462 47.91165 43.39584 45.69593 35.36451 36.70028 41.61884 45.47516 46.52852 54.73496 48.22038 35.09322 45.56661 49.93763 48.50285 61.69849 63.82677 53.03818 40.73073 32.39377 30.38979 24.43720 32.00902 25.70826 19.24880 18.32850 14.69955 20.88260 25.83857 18.97983 10.00000 10.00000
10.00000 10.00000 17.48395 23.75716 29.82424 27.50433 18.58166 19.06035 33.44094 39.20174 29.72157 26.32911 40.02302 46.05543 50.36255 46.36312 34.07803 32.76406 41.74165 38.83129 33.38263 29.06489 41.49218 37.51420 37.93548 40.43102 37.90918 42.98898 48.18150 60.24865 64.45528 68.00644 71.67215 68.43884 67.20247 74.52550 70.27418 73.13328 71.65376 56.90912 56.28009 66.57786 76.21545 68.24997 67.24844 69.59648 70.70199 78.31533 86.80221 95.10343 94.70273 95.96029 106.20320 118.45923 108.81945 96.16369 83.52260 85.95876 92.68460 102.28325 97.32836 93.51479 100.33141 107.52070 115.83249 115.59982 106.84470 103.01885 91.78667 104.83530 97.75175 84.24072 82.51416 87.06957 100.02519 99.17253 90.72266 82.65759 83.71913 101.03271 102.82027 101.14219 103.36203 109.48111 107.06041 110.92091 116.57312 117.09331 109.30089 101.43030 92.93609 86.72031 82.69204 92.23516 96.44317 109.17895 116.26249 125.30850 122.17377 111.60204 104.00126 100.51806 85.65940 84.15344 89.76867 101.40889 112.14325 111.76322 111.03881 109.96405 97.62764 85.00888 78.28154 75.49267 79.97705 96.23741 101.51868 101.01530 96.23715 86.67489 102.67389 103.92288 98.41203 102.64283 112.64891 117.56321 111.66705 109.16294 114.08588 125.35605 123.25105 114.21624 106.45613 105.92568 116.97123 115.37749 113.10416 112.92239 108.70692 104.66985 97.65689 92.92567 96.24787 102.58886 95.74685 87.15836 84.58904 81.81919 85.90678 78.32744 87.80982 102.63209 111.03606 117.29635 115.63393 105.46995 94.55341 85.63135 83.53329 83.99551 91.38151 84.25580 83.35185 82.88673 75.89649 75.35992 76.39010 75.40713 65.55753 60.26981 57.16525 55.69913 45.38748 39.59414 35.94924 30.30866 29.13314 30.46448 30.30165 37.28237 38.50126 41.50158 31.29113 40.10737 39.99439 39.43941 53.84540 55.79029 45.82448 41.73891 33.41710 34.14962 24.22951 22.08349 17.25456 22.17171 19.95196 23.42542 36.31991 34.02906 27.48422 10.00000 10.00000
10.00000 10.00000 21.77970 30.19387 40.38985 38.86390 31.98433 20.79314 24.07710 26.68718 18.62414 24.71795 32.15115 28.85062 37.85415 41.36980 27.31201 29.68373 36.60463 28.60441 29.63471 28.96433 34.40249 37.40431 38.93163 42.24834 50.66829 54.92953 60.12444 65.47788 68.24530 74.20141 63.74436 62.72838 56.16337 70.59328 69.91873 59.70745 60.72752 51.63697 61.74239 69.90285 76.50033 71.05433 61.70459 79.19684 82.21996 87.09168 83.32804 79.80298 78.20342 94.84084 100.18316 116.01298 108.47617 93.22687 81.72408 77.41923 87.77411 96.73253 89.08061 79.46132 87.47782 102.16439 106.60283 109.13112 117.65153 114.09856 105.85343 107.16690 102.02461 98.68230 96.65159 100.17702 104.72534 106.71679 93.06992 91.34536 93.80749 99.65716 112.00306 114.14532 115.18191 117.33760 117.64144 118.97048 112.80708 105.66261 102.75950 91.76392 84.62722 81.27311 80.96684 87.91934 92.96129 103.38868 111.08339 118.74557 115.58283 119.81702 110.00309 98.33828 102.02186 97.40479 97.51444 105.59707 113.11010 107.13616 105.69443 95.74331 85.34784 86.39914 69.09507 69.21460 87.23267 92.53858 90.84660 99.36136 95.23028 80.52986 96.19972 94.41368 88.03537 99.51433 100.01998 102.53716 99.60627 96.64382 99.95842 101.36393 113.35897 117.51986 114.74238 115.23927 112.11041 104.48798 101.27696 107.51459 108.22263 109.46307 109.65862 106.46199 105.47302 109.02947 104.98906 91.91301 87.68180 85.66917 88.17941 82.75214 91.32424 100.01276 109.39713 112.85027 106.68558 93.27398 84.54276 77.92489 70.24724 73.85051 82.45803 73.59058 76.92857 74.75537 64.96516 63.26862 66.82387 64.80504 58.10162 50.84236 51.67990 51.89789 38.61041 36.25025 42.84803 45.86588 41.43221 41.48664 38.33914 36.84727 29.06090 29.63256 25.03955 29.48933 31.62656 33.75398 42.81645 45.28334 40.49783 38.65506 27.90170 25.11298 22.72074 25.21727 37.17684 30.67291 33.22492 35.89755 43.82019 37.56220 27.66959 10.00000 10.00000
10.00000 10.00000 22.78743 32.65061 45.55871 43.35674 30.97590 26.58586 20.54871 17.40113 19.01039 21.13123 21.51138 19.06060 29.68023 28.42745 23.99091 25.27780 25.89703 32.39821 43.02315 43.14092 48.43824 47.43858 40.71656 47.44478 50.87859 56.35329 58.32413 60.66389 58.08628 62.97224 48.86615 47.44435 51.63899 61.15291 56.13444 58.10208 46.47139 55.52110 66.40076 67.40762 64.70830 58.71428 67.99100 81.04601 80.33367 78.89555 71.48203 79.14222 85.76732 94.57624 104.65944 108.58319 104.17706 91.34849 83.83238 73.75844 79.72678 86.56177 77.74431 78.69347 85.98729 98.01415 98.51865 106.70909 120.74466 116.95158 112.70989 117.23958 115.93733 107.73648 110.04955 110.84610 118.87890 118.10365 109.08949 108.37074 112.85475 109.59653 116.98638 117.04703 112.16452 112.54619 117.78660 115.78717 112.59576 94.10809 86.46131 88.41731 83.64023 74.08063 79.84583 90.77077 100.01798 112.32755 110.46332 107.78263 106.76813 114.33912 117.47988 117.15046 113.20519 114.06477 111.18542 118.11638 112.99439 98.73588 90.15075 87.85438 76.76202 80.88666 66.86926 71.73824 82.94471 85.23174 83.52822 94.15879 88.67405 77.50020 88.07474 87.74869 84.07700 100.88992 98.40585 89.66817 94.11190 90.86973 93.76286 97.09172 103.92806 111.89773 103.54802 104.22029 100.49810 94.03285 89.91044 96.06162 100.98739 99.92111 104.52236 109.45916 116.37995 118.63012 115.85832 104.29601 97.38817 95.68193 99.25287 91.49076 94.15442 105.54542 112.66233 105.16739 94.04287 86.68071 80.33466 79.14446 69.60097 66.48028 70.21212 67.52217 61.47192 62.87952 56.60403 51.95303 52.88997 55.77204 49.42573 45.53954 44.19825 38.15942 40.74309 54.82154 53.59307 57.39246 55.95099 52.21201 45.42805 36.59669 32.45515 34.28691 38.99916 35.15124 27.49962 24.91770 31.63669 35.70662 33.37435 22.11445 22.52981 24.62805 20.80405 36.18087 44.43488 45.79749 50.90333 49.55821 45.71680 32.71567 22.53539 10.00000 10.00000
10.00000 10.00000 23.88493 33.90139 46.72128 49.91359 50.79814 45.63715 30.39149 32.48181 30.26898 25.53913 24.89187 33.06033 36.64009 25.87385 22.22446 31.47461 36.03456 38.29772 40.17416 44.67925 42.69123 33.77353 30.54873 34.95896 36.79662 44.55951 47.78836 42.04699 42.83356 44.69542 41.52262 44.91238 47.11145 44.70500 46.18225 48.58655 42.89767 51.59730 61.83807 53.20466 50.85121 52.44549 62.11019 75.58002 70.38689 67.49335 76.23841 83.27021 93.06046 101.24916 106.72975 111.27565 96.51743 82.90845 84.82769 75.91823 77.41105 80.71938 70.70298 80.28379 90.40848 91.46465 89.47415 108.23366 115.83210 111.05359 108.00068 116.31068 114.40710 111.15677 114.10498 114.28918 120.18362 125.73461 121.91231 119.57331 120.52753 109.27715 102.38574 109.56233 111.64642 98.73235 109.34704 103.55106 104.88075 100.27658 85.42527 81.89679 81.93623 70.33627 78.83338 83.62768 93.30622 104.86165 97.14571 92.68647 95.83115 105.47211 113.55704 117.35131 116.90271 114.76624 109.11052 113.26800 107.79643 95.69149 82.73141 84.05583 79.76152 68.21008 60.65815 71.15825 78.93098 76.48620 76.47560 83.02880 77.48546 74.78697 85.67494 79.36486 85.46182 98.69398 93.82867 82.67208 77.29235 83.45862 84.44806 95.67183 104.98346 103.37598 94.36536 95.68361 101.57470 92.24775 84.41499 84.37873 87.52150 92.09155 93.27071 105.04866 110.87941 120.30227 117.28185 110.80445 109.27634 113.95570 110.38100 105.96643 104.81161 109.98599 113.75811 95.37772 87.40236 78.97539 72.39086 72.33208 66.75184 61.32353 61.55784 54.63149 54.11965 53.07605 52.06544 50.00886 49.31701 52.16312 48.28868 56.25650 55.50494 49.45350 46.07441 59.65909 68.87929 67.17787 61.92433 51.41153 42.57394 33.72671 36.89916 45.14589 57.59346 52.32433 36.48419 33.45723 25.50200 22.73830 23.62305 24.22237 38.04353 35.93391 32.41086 36.42414 52.39687 60.36660 62.45153 53.34227 41.66886 32.31961 20.88120 10.00000 10.00000
10.00000 10.00000 22.78919 35.25780 43.29199 51.01504 55.84116 51.20321 41.95870 44.00902 48.41848 40.75994 33.84026 39.07699 48.50538 43.67510 23.29179 26.35268 31.24679 30.62618 32.13091 32.52052 32.50165 31.88432 40.56530 38.56485 34.65875 37.93643 31.85703 35.73514 39.09671 42.20382 43.28552 40.57628 38.66968 46.19641 59.74109 62.45089 55.57379 48.54392 47.92353 48.69730 54.74763 59.54676 57.62898 61.63470 66.73116 70.73206 73.87506 80.93537 92.49691 107.66655 107.85084 108.16029 99.18026 86.75864 73.59055 67.04115 66.68620 69.72686 64.22125 77.44742 85.26386 85.87358 84.01992 99.97776 105.87584 95.45441 95.07108 104.05755 105.07990 97.77573 104.42995 103.53106 111.97810 116.30477 125.40504 113.99541 110.21694 98.72101 90.28803 107.43996 108.13705 95.77363 92.77471 97.63602 103.37173 99.13273 82.41168 73.42228 70.24738 64.50835 73.82754 78.48082 93.04264 90.11108 84.37757 83.03752 83.55871 94.72181 103.18729 113.92305 108.01236 101.73700 95.03485 99.52992 96.40222 93.79053 87.11875 77.63521 78.16325 72.44452 65.43748 63.72384 72.31646 73.81648 66.67051 65.37458 70.00953 78.94697 80.34346 69.80233 79.13762 92.95234 90.49376 75.89814 71.97451 75.12947 84.70268 98.85073 108.30108 101.49651 86.75134 84.27155 94.64380 88.77248 75.94629 76.06612 80.08197 81.75750 82.37665 93.71265 99.65890 109.26390 110.14681 98.40605 104.27554 111.77985 120.30342 118.92716 116.69619 119.61545 114.88623 102.92977 90.01950 84.24195 78.01471 75.25090 73.53952 74.67161 70.17521 57.92216 52.52722 51.17515 63.91046 57.80326 54.80126 56.63176 56.61254 65.85620 68.75148 63.93742 61.08258 65.67591 74.03188 68.69853 58.56012 42.86528 37.96558 50.26302 50.79288 50.96807 64.92442 51.08965 40.20927 33.10058 28.69293 35.57355 35.31423 29.87812 38.71433 46.29817 48.60156 44.47743 51.83334 57.00068 56.32085 46.52044 40.63774 36.25358 24.96954 10.00000 10.00000
10.00000 10.00000 19.66824 28.84164 33.11016 47.74550 57.85282 64.16338 55.77171 54.96394 59.81589 48.91935 45.16931 42.05345 51.60865 48.01709 30.85306 35.60989 32.11479 27.08173 29.81323 29.49214 29.87559 42.49775 51.57835 50.39366 43.62764 49.41710 37.89799 46.09569 47.83382 43.09496 56.32940 56.95097 46.70721 55.31733 65.00309 74.10377 68.82946 64.68229 54.38621 50.90134 62.75522 70.12941 70.86266 66.28696 74.61845 86.54029 87.77864 87.64664 94.89429 103.82930 96.33782 97.38917 99.50878 91.69484 80.64737 75.72407 67.93862 63.62503 69.03106 78.96694 76.16957 78.48872 81.28242 94.52829 98.30334 85.80436 85.75081 95.68379 98.26779 90.81556 96.06977 103.49815 104.26830 100.42356 115.87907 102.99196 98.36750 95.64424 84.21034 95.21585 98.18653 93.19446 84.42560 95.62725 102.98857 95.78102 84.99001 87.19086 79.16270 63.53863 67.25343 75.71432 85.72103 79.89416 76.56131 81.21120 90.84160 99.85984 107.63808 111.74348 100.66162 89.53143 87.20518 89.24927 90.95705 86.34011 88.17498 79.33756 67.53999 65.40079 59.36111 58.77979 65.69046 63.29608 66.27869 68.78520 80.35767 84.11471 70.07378 71.39166 83.61430 94.29198 83.50349 71.85694 78.06596 81.61973 85.72521 98.86921 99.32152 92.63814 93.63705 79.73039 86.96888 86.97034 73.99115 65.77407 67.68651 75.81895 79.98119 94.20831 97.17889 95.04658 91.98703 90.71046 90.65590 106.41166 118.55419 116.72077 109.73855 114.49087 115.56915 111.63764 102.03213 94.99533 83.74231 90.35878 87.03113 76.31185 64.34373 63.24735 58.40097 60.08885 71.83825 69.51479 63.14792 69.20297 71.63560 76.61806 73.44124 68.40892 65.23832 66.99702 59.54383 53.25576 48.20127 38.66573 38.61457 46.44841 55.54501 69.08206 67.37719 55.92769 46.56942 40.42476 39.84483 44.20443 39.98405 27.57305 31.06518 39.82420 49.71894 56.36131 52.67014 46.71564 38.90182 37.58198 31.34552 28.22731 25.73054 10.00000 10.00000
10.00000 10.00000 21.42968 30.98083 36.51723 42.07875 52.02616 57.93584 56.66128 58.56758 61.45007 63.12938 55.69166 46.19882 57.74010 43.20225 38.67943 49.98142 36.18757 32.42166 39.98572 38.26774 28.80252 46.70427 53.53975 56.85213 54.04023 58.35764 54.81493 46.04407 47.53613 41.98373 59.43555 66.22119 65.10734 52.44604 57.14652 75.82146 82.27511 73.75706 68.55689 52.77996 60.43663 69.84328 77.87539 83.54181 75.10067 86.25349 94.51404 98.20354 105.12996 106.47310 90.89372 94.90952 99.41269 96.02809 88.79593 80.57237 75.90329 63.94935 66.05113 70.43739 70.01315 80.40382 94.09762 97.20578 95.90346 84.11023 81.25533 89.24950 84.90806 81.08183 84.06357 93.67306 98.88932 93.94972 103.84226 102.79294 98.49387 96.79048 81.40438 89.13185 96.48946 81.76862 84.36527 95.17176 101.55155 104.34527 106.02621 97.68607 82.21400 67.08804 63.90161 82.24980 81.30915 71.11757 79.58248 88.65118 99.43202 109.07088 112.10919 110.36535 98.92140 84.49677 77.28197 78.87164 78.62738 74.11484 86.29297 82.91562 71.33170 64.70038 59.87191 51.13890 62.95637 59.51564 68.94415 70.63366 68.91263 65.96687 64.54724 75.14844 91.75537 91.07777 73.75430 71.62058 82.58631 93.39205 102.48475 102.83432 96.99883 83.31552 90.41600 84.13842 73.59749 81.10922 72.59874 62.49505 67.49364 85.54882 87.34195 80.76882 87.13177 86.99367 78.65176 82.80658 88.86965 109.31395 112.36399 107.63646 100.20707 98.68470 106.70154 112.56518 110.25065 99.70834 94.26560 91.23560 74.45453 72.41551 71.29709 71.21408 66.62170 63.37351 76.39188 82.87495 68.69697 75.42849 83.78491 74.58530 61.45375 56.01782 48.80782 45.83902 48.87934 42.63730 38.19828 44.34557 48.55967 50.25363 66.51001 71.87292 63.65991 56.08916 45.87380 32.65502 42.82644 53.61085 46.32475 38.18273 36.42923 37.91882 54.43984 64.16313 56.91648 44.06985 42.25391 36.36038 30.10924 21.70943 20.03845 10.00000 10.00000
10.00000 10.00000 25.45641 34.31513 45.33147 44.44992 45.20502 43.58289 44.51754 52.86222 67.34837 71.18899 66.01131 61.15844 65.23318 57.90536 55.57978 56.87916 43.40115 40.46580 51.74776 47.92429 30.67796 36.65069 51.31800 56.83179 63.98509 66.61672 52.78276 47.05218 41.90686 43.33181 53.28725 63.02438 65.46075 64.43067 62.42644 73.24335 85.13726 76.49143 62.62140 56.70532 64.97400 70.45048 80.58830 89.41509 84.60992 83.60410 94.15198 103.45165 108.84030 105.13297 92.91155 83.40705 88.15728 91.64833 84.72620 76.07454 67.53373 62.80903 59.84868 62.06603 70.11460 80.56083 100.87900 94.18707 91.09324 81.64466 73.86522 82.52574 77.61797 73.89994 80.42264 95.29527 100.66591 88.12804 91.21564 87.24018 81.62324 86.73841 83.98536 75.97041 80.93771 74.98900 85.63123 91.77539 99.46424 108.38597 109.39455 99.13432 84.22096 69.62560 61.02587 76.08997 76.84928 69.47431 72.34238 81.16778 93.79865 106.07317 105.41959 112.09246 103.55906 88.15853 75.58133 70.59511 68.64513 66.67061 77.12195 76.84007 72.82763 72.68186 68.61096 55.34069 52.01292 52.11107 63.39302 62.22258 55.74993 64.10771 73.11459 83.95098 91.81681 79.42375 72.02196 68.28990 78.89477 87.27802 98.88303 99.95528 90.18760 75.73452 77.10637 79.27383 68.82470 78.75972 75.87598 66.96127 64.84418 74.41226 67.06285 75.80364 80.46667 72.65477 77.29933 89.89642 103.68009 110.80473 104.56675 95.65560 87.77828 87.16172 96.27442 106.11548 110.29342 104.08266 93.80622 81.82311 73.42128 77.38502 83.56752 86.21602 70.86813 70.44195 78.78243 82.99398 83.31985 84.61502 80.60345 71.52279 59.43468 57.93805 61.01711 51.17376 43.73390 46.68699 43.72135 51.41702 60.13161 69.12732 74.12626 63.67847 53.70581 42.49122 34.65511 34.98122 53.36174 60.98526 52.01241 40.40525 43.28437 53.44077 55.18916 65.60391 61.79156 55.52526 57.36914 50.61158 37.53012 23.40730 19.00507 10.00000 10.00000
10.00000 10.00000 24.83087 30.55366 38.31181 33.65310 31.43023 37.74688 47.61334 57.96966 67.20820 65.28382 67.71651 70.43467 64.51698 64.56411 67.34625 60.84594 52.64363 58.92968 59.59455 48.19821 36.06881 33.01558 40.80237 52.34151 57.36198 68.18957 66.19333 56.80882 43.17229 52.45838 55.01414 54.45131 69.12418 72.95501 70.34441 81.21396 91.72501 88.84026 69.24188 66.93298 65.19901 74.53016 85.82322 95.81505 103.87266 101.16392 101.55929 107.75184 104.37242 93.52722 83.45441 73.10407 80.04408 85.89671 79.69013 64.94673 59.48705 53.49454 64.21607 70.11940 75.64211 84.48173 96.82646 85.73659 83.42081 79.28404 74.02680 80.23138 68.53986 81.73349 91.29891 101.42591 104.14957 96.74466 79.63100 81.80930 81.33469 75.40367 76.42245 68.87563 71.50060 84.66630 90.18186 82.52124 91.71541 98.08733 99.49655 88.71456 83.45392 78.97572 61.10756 69.66780 76.62260 63.64121 70.62952 83.72628 90.33209 86.67736 93.34329 105.80843 107.50830 95.60488 83.42322 71.84193 65.49082 61.61124 63.66518 63.77679 64.50635 64.53540 67.50762 59.52365 49.14370 56.63167 61.69811 51.67568 66.21185 75.31723 81.25736 83.53080 74.48831 73.40129 64.24862 61.69144 71.69000 85.13641 99.17637 99.30957 90.06214 72.61992 66.77420 73.89981 63.20014 77.05912 82.55311 68.56047 58.22058 66.92901 58.88300 60.88365 68.32803 73.20857 83.75493 92.58557 105.54736 105.39222 94.15320 87.12673 86.35514 78.88499 87.05264 101.44379 107.77000 109.25330 91.93797 86.74868 78.89851 86.00305 93.91468 81.44007 73.52737 73.49574 86.97066 94.64112 91.24314 83.88597 72.11484 58.36549 59.79492 67.39302 68.61218 58.58467 52.72378 57.53316 47.11677 50.51198 65.25662 78.32469 66.64150 56.83303 54.76051 46.46011 40.76487 44.91886 52.46945 61.28877 56.22521 45.19800 56.50402 62.09309 66.89091 72.58790 71.48188 65.17749 56.17956 47.95911 31.99979 24.70136 20.55355 10.00000 10.00000
10.00000 10.00000 20.06002 24.18163 21.66993 24.60584 33.67177 42.97185 50.07965 57.48581 48.93425 54.57862 58.87578 65.54954 59.41199 70.17033 75.53001 71.85899 64.33997 70.40822 61.05691 48.30896 42.57694 36.57409 35.82233 41.55787 55.14518 65.28310 70.60371 67.14323 52.70096 59.43890 66.73172 58.12785 64.42835 71.68545 79.74699 91.20235 94.39665 90.23043 75.54056 77.50695 77.23828 87.61400 95.04908 99.54902 106.24808 108.72659 111.43847 106.77343 98.97737 86.46587 77.62415 68.71899 71.71795 81.63309 78.99221 66.90192 56.72580 56.31328 65.67796 71.78532 81.19987 93.95902 92.30060 84.94380 72.79173 70.48180 71.71730 73.60822 67.25830 78.35584 85.56930 96.02464 103.93475 93.01234 78.01984 68.91158 70.63057 66.96325 68.15002 63.40834 73.51398 82.68733 85.98151 72.35870 74.99030 91.43500 96.29283 83.31470 73.96871 73.24672 60.33551 64.10467 58.94677 65.27754 80.18034 77.99431 73.66541 81.24801 89.92759 107.37272 110.41804 96.98800 88.02064 85.55360 72.47248 71.90342 69.86510 59.13120 54.96849 55.71587 62.95909 63.05411 55.65124 52.11365 50.22525 57.35818 64.87358 76.95083 84.07012 75.45100 65.40801 60.01029 61.19192 64.49268 74.06067 85.41190 96.80981 99.85685 86.96186 72.20241 62.53298 63.70139 60.95066 72.36697 85.81627 79.64849 58.10622 57.14759 61.77294 70.30889 74.84194 86.08901 95.45159 101.55256 108.21184 104.03574 89.62689 81.64474 75.35773 76.48038 86.76256 96.53143 96.26166 105.15719 107.35534 102.82249 92.61535 97.70422 94.28925 87.53800 79.82179 74.76245 93.71177 101.41640 93.81143 76.00747 64.34988 58.55387 72.30972 76.96595 59.65868 52.26068 60.61945 66.91255 52.77819 57.87438 72.49220 86.13038 74.05552 66.25756 54.00770 45.23297 48.87694 53.60883 58.79102 69.59946 68.68594 53.81858 55.05913 72.90317 73.81306 75.36625 74.76436 63.79218 51.62495 47.86091 36.67970 27.64027 21.47092 10.00000 10.00000
10.00000 10.00000 20.44525 22.08499 20.05779 22.13621 25.30781 33.23155 37.42201 33.68972 38.75267 43.29795 48.35612 48.34094 49.61632 68.77407 78.52979 82.44565 84.05915 77.96168 66.29034 53.37318 51.63746 49.60552 45.62520 42.66358 49.20875 63.67697 70.84756 69.86638 58.74674 53.13701 68.11194 70.77482 71.72148 61.25532 71.27688 93.34678 95.19492 96.52723 87.41074 95.59660 94.43463 88.23868 90.33473 91.95619 99.22193 97.06179 100.05266 100.19834 98.55310 87.31208 80.22328 68.82456 64.75077 74.93420 78.55344 77.45074 65.39690 56.34383 59.92395 69.53595 81.04921 97.21497 98.04515 91.19036 78.56127 67.24666 62.80988 61.31762 70.97767 77.29911 85.72722 91.63927 100.69765 93.60535 81.65806 73.11558 72.81750 61.48768 59.36504 60.18197 70.03031 87.30745 88.87918 66.61325 73.85684 89.75989 97.12122 82.62713 64.94279 60.58777 56.27170 60.26494 59.52147 72.51336 79.21220 68.85280 70.26689 79.89002 92.51629 106.91328 110.65606 105.58420 98.31414 89.08325 82.66835 77.16843 72.26284 71.15784 64.99624 56.11837 51.61776 46.56245 48.00441 43.84088 51.59119 65.81268 74.95036 84.13501 84.01865 67.19623 59.09707 53.66470 62.04735 73.07880 81.70164 86.65605 100.97915 106.09415 87.35560 76.64708 64.36141 59.44393 56.11936 63.56482 69.70641 65.18622 55.88751 67.43573 68.58545 71.72303 73.57554 85.94518 96.87422 109.59657 107.46299 99.99819 95.68057 78.97303 68.43841 81.21516 88.78043 91.20058 88.00334 105.85275 110.33487 104.77673 103.88303 109.04813 99.01074 93.90933 83.20884 87.51344 98.57917 93.99255 80.58817 72.12934 67.25961 67.70818 75.75469 78.42698 66.48847 57.17646 73.18834 77.14268 67.50482 64.12971 77.89285 81.81385 73.20510 60.94767 53.89270 58.34980 59.43204 64.18339 67.10919 78.07171 72.56722 64.88465 63.16527 73.00530 67.71988 64.52853 62.96119 59.42830 57.88313 55.45655 36.58730 25.39400 16.43719 10.00000 10.00000
10.00000 10.00000 21.16583 36.83046 34.29362 27.84934 24.95075 25.32496 26.88224 26.55298 28.91726 34.40641 38.61529 37.64703 51.97987 55.91140 69.12279 74.38737 81.13023 79.97417 69.54471 65.88777 56.29252 55.82652 52.47079 47.51555 45.01339 56.73154 67.92796 74.29188 66.41747 53.58106 62.05725 74.58208 78.29238 71.74507 68.88193 85.55397 92.56304 99.77483 96.51732 106.67860 98.20053 84.64860 75.97313 86.60158 86.83895 83.15075 90.68476 101.08309 104.07996 99.82466 87.72619 75.45926 63.30183 68.03840 76.58606 78.09828 71.86319 52.25012 54.41150 65.61065 82.00096 90.05771 86.89853 92.09284 82.88215 67.09018 55.61989 60.76740 71.76380 74.26083 75.34359 88.76918 101.90217 97.38401 85.70848 81.62343 81.84547 68.28431 57.81970 55.86924 68.07157 83.70441 75.27676 59.21047 65.24048 80.65999 90.72760 85.16836 73.04676 63.17906 56.51785 50.11607 63.90911 72.26862 65.03461 63.03928 72.04232 79.66588 92.56839 105.75148 111.98149 107.91210 106.73047 100.27400 94.87038 90.91952 88.07879 81.84845 73.28096 61.28350 63.41707 55.04502 53.23966 44.02803 57.71944 70.79500 82.83895 86.31076 73.37642 59.62111 49.66181 61.06284 65.95853 76.96982 87.85429 98.73460 106.03452 107.86975 93.15887 81.25555 71.13611 69.59526 58.98946 50.55455 56.03302 57.31048 58.20060 70.28511 78.61516 81.49744 88.27846 86.68769 100.97103 106.86944 94.55453 84.43608 89.28314 83.96411 67.88998 79.50356 79.31353 80.36432 95.13193 103.02218 106.33717 105.05501 107.80434 114.86604 106.77606 97.50936 91.15693 97.50694 101.70149 94.22444 83.24299 81.79383 76.61330 82.46980 82.37658 77.57958 61.66625 55.41858 72.46409 81.84208 77.39944 74.63610 82.84849 78.53308 67.66415 66.31691 62.20389 68.94821 73.04464 74.78614 74.51287 80.89001 80.63703 77.33991 75.60045 72.72041 66.22456 50.26311 48.59721 41.13019 46.32013 38.66958 32.76989 30.61578 21.15532 10.00000 10.00000
10.00000 10.00000 25.02465 38.21054 38.03996 38.44335 39.30590 34.75793 34.72822 33.26140 33.30955 36.39963 37.81403 40.04547 42.64537 48.60243 51.20327 58.13713 62.14932 79.13647 77.85195 71.86511 67.81702 60.90743 57.72067 54.75540 46.77885 58.06730 72.45695 76.13795 72.93091 60.68963 61.84603 69.62466 75.34235 80.55074 75.23995 81.58257 96.79496 106.81967 100.27937 100.38779 95.16585 86.50965 75.02437 71.57585 74.56776 83.98230 97.50662 103.72578 107.55488 93.20522 80.71452 69.29117 63.90715 58.50030 71.50671 66.23482 61.94735 49.15228 61.90054 74.40744 76.86719 74.28247 78.31780 86.78214 78.21021 64.40913 53.06267 58.52736 62.22289 67.03187 76.05354 90.28320 102.65817 104.60921 99.66164 96.83512 82.78726 77.39347 67.70598 54.10073 68.26995 76.52718 64.35827 56.87443 64.32844 70.93510 85.92340 88.66844 76.81404 65.96493 57.96303 51.89076 63.37690 60.83486 59.14704 74.16890 78.08858 94.87800 100.81899 100.87240 101.09572 100.13615 110.01033 104.82604 93.20703 94.26123 99.33912 97.22556 79.51695 76.53306 75.19298 66.56950 61.38047 44.90279 55.22405 62.97841 71.39873 76.53081 67.07275 54.26597 48.85425 65.98376 71.24486 76.59987 91.65071 103.80291 110.84622 106.38263 100.67303 85.88597 83.73504 79.91379 65.69117 52.42315 46.47121 47.92100 63.78295 75.38579 83.17832 93.47437 99.89753 114.12684 107.34439 101.17447 87.84165 77.37786 74.27753 73.57892 66.65896 78.38782 71.40318 79.64583 89.94852 94.41607 91.71621 97.58031 104.28377 108.86306 109.39638 103.25834 101.60404 108.95601 108.63824 103.02299 96.60906 83.71509 90.03345 92.75954 84.33553 73.59445 60.95220 65.69835 71.47832 81.31537 84.04061 85.45882 90.95500 88.59586 84.90256 81.25701 75.01204 78.70959 78.71205 67.00205 69.05217 72.34015 74.32124 80.75740 73.10966 70.54731 58.13572 47.88914 38.13110 31.87655 30.15860 37.59418 38.62733 38.02743 28.47345 10.00000 10.00000
10.00000 10.00000 23.41011 40.45343 37.78019 41.25584 46.07482 46.20973 47.97982 52.75017 49.43685 45.06960 50.70652 50.30479 42.67433 47.78678 45.09309 49.55045 57.65834 76.78568 85.86707 85.90192 80.54708 67.68264 67.01931 65.30128 48.93035 51.56791 63.70393 71.98105 75.78667 74.59351 64.16557 69.84077 77.73233 89.18668 85.96076 80.75945 98.51218 102.68035 91.68457 86.23900 90.80148 81.83415 70.86428 71.22952 81.26027 90.27588 98.47800 102.92691 95.53320 86.90408 78.97823 70.19560 63.84757 55.52103 67.16885 63.36217 56.61564 45.93883 58.66577 75.37096 76.43401 68.28350 64.45050 76.13644 79.80379 66.42178 53.20447 56.16472 63.63660 70.67835 83.52116 94.52423 102.78195 110.32505 109.31727 97.89731 94.95400 88.43083 75.70209 55.77546 51.40549 60.44661 52.97436 61.93699 71.81908 81.03807 88.52288 88.23519 81.87306 65.57365 55.39110 46.92611 54.06395 57.29275 63.69497 79.31585 89.78041 94.55775 99.04207 87.23697 88.87358 101.95026 103.52145 95.23135 81.79499 78.67327 88.29201 88.05055 82.63432 84.12068 78.66394 63.48196 53.17526 43.08424 47.02719 52.31249 65.33188 69.60575 58.54203 47.99029 52.62497 58.91766 63.60498 77.92331 93.14189 94.99183 103.69793 100.10882 94.17341 84.04489 84.12484 82.03275 75.07553 56.47548 46.55748 55.29258 67.71366 77.49758 81.70651 86.09710 96.70189 114.16826 113.03610 104.23689 89.01128 78.52142 68.20947 61.34147 63.46476 66.62467 68.35126 83.72623 85.81153 82.08297 89.77371 99.28428 95.85661 94.82227 105.53881 101.14405 101.12935 110.59097 115.91242 108.35711 91.50062 92.34876 97.57826 92.92388 79.34363 70.04006 66.53111 72.18605 82.16133 86.22856 83.11468 84.67136 87.88121 81.27368 85.64165 83.69371 82.71889 82.66319 66.76417 54.29724 56.03841 60.76550 64.65290 74.51355 69.03941 59.20161 54.17017 45.25216 39.81618 31.74696 28.80766 27.41628 26.61336 28.06122 19.55966 10.00000 10.00000
10.00000 10.00000 19.99113 26.28712 29.98267 31.36616 34.35245 45.29427 47.71143 51.29421 53.76496 59.24710 62.16448 59.55697 53.85085 60.90452 54.34653 53.12741 60.21052 71.28534 89.67087 92.79260 82.75287 80.23141 75.00189 65.26174 51.84135 53.18884 66.70032 81.82434 90.75690 87.33217 75.88280 77.03137 80.24709 92.32781 98.07274 91.91261 95.00416 101.24440 88.27825 72.30986 71.22216 72.57835 64.86879 65.42826 72.82773 84.12759 95.62058 100.92493 85.03455 76.43527 69.17258 62.85853 56.67093 53.20775 54.73023 58.37321 54.16057 46.46200 63.25385 76.28572 76.57053 59.35842 66.69264 76.89901 74.86441 57.12686 51.04449 65.54967 75.60461 76.09373 86.95667 90.73294 96.37234 104.44729 105.81607 91.48505 89.74224 88.25386 81.01104 65.01641 57.21126 49.93921 51.79898 62.97134 75.69762 86.31885 86.40172 86.77482 74.78524 59.00856 51.57981 48.66776 55.05783 69.28510 77.07456 83.54576 93.03994 94.04704 96.69657 88.89168 79.30959 87.78910 99.81908 97.52057 87.36360 72.14605 76.62267 76.75966 72.32566 77.80023 79.07915 61.69048 48.68774 46.28785 39.48578 53.52996 49.10978 57.21937 50.48757 58.69316 61.85434 69.78048 72.81231 79.17409 94.98602 93.00205 102.41015 92.72107 82.14894 70.61097 72.62481 75.72308 76.40376 60.79894 45.96392 51.29253 63.49496 72.09541 74.59441 87.44048 97.15075 102.85066 105.35361 106.47536 99.84184 85.43574 76.28319 67.68196 57.36944 61.76105 70.79312 82.96030 81.78223 82.85777 91.89278 99.53158 92.11858 84.16589 86.94171 86.16921 97.21675 108.07685 109.40050 106.15826 106.28211 110.85500 99.00873 92.14056 84.35126 79.14994 78.39831 84.26456 88.89159 81.14489 74.73336 69.46335 72.89207 67.39971 75.10617 72.65290 83.09498 83.55573 68.47211 57.79696 47.16369 44.14163 56.48591 64.67522 62.59054 62.57982 67.48656 61.59249 55.69161 41.83851 41.40406 31.69128 24.67112 25.30147 18.86125 10.00000 10.00000
10.00000 10.00000 16.19001 21.45065 21.56133 22.33152 23.68511 29.77457 37.26892 39.95374 45.87932 56.55586 67.83008 68.48846 63.39517 61.24733 68.86137 69.36003 59.65507 68.56532 80.11413 96.26449 90.05040 87.90469 74.23150 66.15719 63.57164 63.45310 69.22001 78.88238 87.41093 89.75574 87.98078 82.61429 86.37143 98.13382 112.67319 110.07320 105.46765 103.71444 84.00745 73.04601 69.82832 67.21353 56.95956 60.28651 76.34200 86.83354 85.09684 93.05907 93.89582 74.20517 70.05799 61.63743 59.54724 61.88068 53.49204 53.09345 48.10078 41.21082 52.91799 64.40643 57.74556 52.67309 68.24649 72.93940 69.26868 56.78039 51.38350 65.04297 72.77978 87.58157 92.44511 84.61311 83.10148 95.91041 101.76357 87.93010 76.80404 79.38230 75.96292 73.22919 64.29108 51.65362 49.05907 61.32455 72.31908 81.06511 79.59029 85.35649 79.03764 63.73308 52.85185 47.67615 64.42117 74.95709 83.38546 78.78846 79.41930 84.56609 91.78365 87.20865 73.35744 81.26500 94.43139 97.00994 90.78312 80.45685 69.11809 62.19599 61.79273 69.98878 77.19971 64.10327 59.17867 56.58806 45.51979 52.84190 45.17883 45.07655 48.08825 56.67347 71.36423 78.85948 78.97088 82.49279 80.46772 81.72693 93.50833 88.95548 74.51684 66.73432 60.94246 69.35806 70.72190 57.07074 43.93686 53.59906 66.99294 62.85724 76.52294 85.27242 88.85919 85.98828 93.48805 107.49136 103.06220 87.26024 82.27931 77.37207 58.59162 67.58480 76.54047 77.74493 70.42984 76.27276 87.19849 96.72560 94.18494 84.01762 74.51626 80.32297 91.62667 96.48238 97.99664 102.34626 107.17214 107.66615 108.06890 104.19953 94.82297 92.95073 90.64543 90.98009 90.34060 82.48853 68.74571 64.46413 59.06209 60.45798 67.77491 66.46945 70.94518 71.99949 64.21454 53.04242 48.26221 37.58597 51.07194 58.99366 49.31855 52.26032 61.93118 63.21789 61.63032 59.38598 49.47756 39.90477 29.44745 27.05064 19.69927 10.00000 10.00000
10.00000 10.00000 23.52537 34.00928 34.91118 30.97493 28.02663 34.95310 34.36625 38.41391 42.80452 49.01955 57.09082 57.97018 67.78754 71.97398 78.94089 81.21748 70.08186 71.47404 80.69277 94.72395 97.39411 88.34775 88.06038 75.40084 72.05154 69.25759 62.27921 66.90846 75.48893 87.29480 99.82358 98.02444 101.34599 106.41543 111.15355 111.64954 109.21638 101.74836 101.25655 95.66194 80.41047 73.34286 62.57238 62.41058 70.17023 71.11905 80.19394 92.09033 95.19303 85.48328 80.71312 74.52546 73.65864 72.44910 64.83415 55.30312 49.24305 44.34428 51.75063 63.33597 52.72298 57.36143 68.81835 75.41818 70.14246 52.73681 49.73033 59.12354 67.58607 82.12305 88.87797 73.58497 81.62760 93.01213 97.18578 91.58481 83.54087 70.91522 66.40114 75.53182 73.03383 58.60282 48.47318 58.17182 65.85452 63.04280 74.86540 83.05389 80.98228 68.06626 56.09069 45.52814 65.72498 72.75423 72.96381 62.97330 67.41474 79.62999 92.67898 93.02792 71.55845 76.12744 85.88611 92.68246 95.77051 88.41798 74.97185 68.32307 56.96462 65.59500 74.05363 70.62717 67.68130 54.17630 39.09918 41.45735 41.51064 48.91649 64.94996 67.24989 74.06773 75.42326 68.35596 78.67994 77.71133 78.02562 93.09694 91.19662 83.02087 68.84945 55.18654 65.72088 69.18396 51.43836 45.95752 61.87328 59.97123 67.92757 77.85603 81.48912 78.50000 83.69346 85.86735 91.65881 90.97159 80.88079 69.70649 66.86875 60.01371 67.24174 72.59527 72.70912 66.40165 73.29956 80.18931 92.66574 93.10070 80.70484 69.10271 78.18544 87.13276 91.20848 86.39243 89.25752 90.00587 94.47482 103.99715 110.23132 97.78809 94.23321 86.83419 84.37657 86.29350 75.98489 72.86361 65.32461 50.91034 49.32341 63.39270 59.23602 58.12631 64.05386 61.24537 48.37015 37.97441 37.76037 52.30501 52.31897 39.39602 39.24622 45.78769 52.42142 63.20232 64.10070 47.90602 44.39115 34.60966 25.62831 20.95062 10.00000 10.00000
10.00000 10.00000 26.82328 39.20708 46.66839 44.98831 42.97713 49.36945 44.03044 47.78110 39.37612 44.64217 48.04765 51.54995 58.58330 70.28035 82.82268 87.85948 81.78292 76.84859 86.80869 95.16649 97.37317 94.72382 96.47970 90.16848 80.84585 77.50108 68.73707 77.04785 83.67165 89.94524 99.01322 104.63372 106.02683 95.43519 102.78779 104.44882 104.06012 97.08727 100.27844 89.10310 79.44763 66.36340 57.53299 56.39065 59.10132 66.90528 81.07532 94.03727 101.13146 91.73413 82.44477 84.85326 88.95212 82.85909 76.90840 67.29355 57.19542 55.01709 45.86485 52.96750 43.42035 52.53464 68.19334 74.40587 69.03953 50.85349 45.46212 50.72494 73.36419 75.15343 78.33807 64.48032 73.42026 83.89301 92.69266 94.66846 80.17226 73.23987 63.60690 66.13392 72.22112 68.31032 50.68787 50.44934 51.97847 63.28137 73.74857 79.13720 70.85453 60.37944 51.49502 43.67384 52.56599 58.43102 57.80025 60.07759 67.34115 81.61832 95.28506 88.14125 76.78784 66.98761 74.77628 77.57710 90.67855 92.11816 79.54861 67.26094 56.70030 50.49174 59.49642 64.62031 63.82513 41.45538 35.33988 43.39665 46.79233 54.16075 65.89867 70.93853 66.68825 58.56454 58.91422 64.44720 68.40819 75.30870 91.63632 97.93089 81.87380 67.05683 53.18164 51.77564 62.36376 52.95362 47.07582 55.82561 55.11539 63.97455 75.13054 79.48832 73.50479 79.42758 80.44733 77.54473 88.43937 88.06693 77.14490 67.77975 51.83228 62.81787 69.81538 63.64922 64.24128 78.26259 79.21244 89.32443 93.29053 82.01493 67.69537 71.02671 91.21024 90.22608 78.27644 77.02004 79.73758 87.40394 100.93220 105.40510 91.89942 82.37752 72.25455 71.61135 72.43541 64.64223 66.24128 64.70187 54.85414 46.08194 53.04509 48.35413 54.76771 61.29052 61.25685 51.89558 39.41347 32.62118 40.85201 42.63091 38.37538 29.40712 37.34380 51.17638 63.21608 67.14494 50.71428 46.77650 43.50757 30.31552 23.93108 10.00000 10.00000
10.00000 10.00000 22.48154 32.35997 44.09683 50.92548 55.38360 60.34455 58.16570 55.15099 53.84425 55.31613 55.80593 66.31333 66.21895 73.84381 81.00286 83.74860 81.12932 82.31087 90.90137 86.06520 81.79168 80.80704 83.65971 88.85784 88.14463 87.35060 83.32193 88.58241 94.18099 95.87364 90.17028 90.99606 91.36693 82.66834 88.32638 99.18464 91.57036 84.43373 89.50950 87.79170 76.25872 67.28821 55.43869 54.56306 64.29543 66.67578 76.15060 86.14241 99.95177 98.99875 99.08449 97.82227 94.49271 95.57336 88.79380 79.08026 65.50074 56.09546 45.88730 38.81583 54.32656 62.71686 71.55083 72.88835 66.36610 50.80210 43.97315 57.16820 67.21561 61.51469 65.15941 61.41188 69.48942 77.41334 94.80734 98.07281 89.91592 76.67132 61.54419 58.15222 56.37158 65.16394 56.62033 43.89914 54.37245 71.44395 79.25680 78.24345 66.54067 62.25214 48.57016 47.29986 52.95081 50.26874 56.56078 65.47362 76.99599 90.73470 94.66396 88.91498 75.34074 63.98588 67.67554 73.96681 83.81569 90.35150 89.00594 71.20339 62.33922 52.41212 49.56122 52.03912 57.30669 43.77086 34.22685 53.89278 56.77240 61.48929 67.62395 64.33333 59.08614 56.74017 66.76029 68.04773 66.45007 75.88945 90.52005 93.03888 78.92366 71.62040 64.70001 48.20060 52.63661 45.44496 44.30113 49.09316 53.67779 70.61674 79.75991 80.10596 72.88819 65.43992 68.54367 78.91830 92.00717 93.97527 82.54650 76.45969 62.56222 58.25566 69.36755 61.14611 63.69003 67.09144 73.74736 89.55527 91.43729 73.73146 68.02755 75.01682 87.39108 88.60298 74.55868 69.11522 71.80631 85.85517 97.56908 102.97858 92.69394 81.69208 69.40156 63.90500 61.59686 56.96467 55.13577 52.45231 46.37549 56.07839 53.03626 39.85323 40.15132 54.50156 58.46421 58.06509 45.42075 30.07023 31.02601 35.45859 28.92554 25.20546 37.75615 45.07543 49.81915 50.87648 46.87351 42.90158 43.78864 32.64017 23.01513 10.00000 10.00000
10.00000 10.00000 19.27361 25.49652 34.62525 46.77282 53.86727 66.36311 61.60191 63.02659 68.14367 62.76502 70.20961 75.17651 81.91789 84.05607 75.47717 73.64692 72.09820 76.01349 85.14403 79.50468 71.79388 71.73250 80.30795 78.22190 76.68315 85.13186 86.67717 91.63766 97.13058 93.35798 82.14847 76.44478 76.82992 76.83570 88.76582 92.51332 91.82958 80.86037 81.93861 84.63557 75.75308 64.23659 58.32538 56.62138 72.34008 79.04243 82.64159 85.23769 92.07220 93.72028 96.36964 91.42490 78.57382 84.92280 89.91808 81.86651 64.91414 63.43463 47.62661 40.39136 55.31904 66.46505 76.89568 77.17400 58.13717 48.47084 50.17704 59.81680 59.68450 53.38434 56.29126 62.09089 75.16275 87.94174 97.35190 91.21402 89.77747 80.41045 69.84299 58.23332 47.64170 48.39007 45.68142 56.62734 64.97238 74.21670 77.99723 75.57279 62.01826 53.14135 42.20802 39.39292 45.19589 58.95236 63.28671 70.87618 82.31926 92.62868 92.01260 78.36271 67.28066 57.16883 61.64840 74.59613 81.68507 93.05033 88.04930 80.00320 67.41786 55.87205 47.69803 45.85616 45.56148 39.36072 32.76414 47.20394 56.15686 61.75930 67.38919 64.28976 46.03387 58.92648 61.55724 58.47492 59.10258 69.82288 80.86667 88.04842 81.02712 70.32991 68.21626 57.65005 44.07578 37.37807 45.61541 45.95200 53.01362 64.01561 75.43700 76.51369 61.78456 58.08341 72.45455 83.06870 89.62755 92.51406 75.37510 71.00201 55.55373 48.13139 67.32422 59.88570 55.72687 65.45895 79.51600 89.23936 78.14822 71.48993 58.71784 60.38508 74.33865 75.10082 65.01020 62.41269 73.38820 85.80846 96.73501 105.47237 99.98892 91.29581 76.89455 78.48693 75.01660 70.32020 61.81781 55.11680 60.74951 64.22666 57.49793 46.41782 41.25499 38.72804 46.75054 54.29946 41.36838 26.97821 27.96483 27.05739 30.15405 26.96626 27.85577 30.07401 35.65452 32.85029 27.75755 28.31488 31.44148 24.66082 17.72317 10.00000 10.00000
10.00000 10.00000 20.54065 23.80843 30.93958 42.04716 54.17368 53.57787 50.44763 54.20947 71.43348 75.43899 80.43668 75.99268 80.55140 73.95045 65.60090 61.55530 57.26335 58.28452 67.53805 67.05048 60.68916 60.54045 68.50799 70.77258 66.83669 72.99788 77.32398 88.79096 100.27517 99.63883 87.95813 78.22176 66.47402 77.73701 78.28741 81.73551 86.22835 76.89351 79.09600 79.79685 70.74486 56.87404 48.59947 57.20716 69.21505 81.84823 88.06414 84.74755 80.07491 84.41114 94.39817 90.26372 76.17771 71.69378 85.00956 78.68645 59.33409 51.41180 41.54992 40.11717 54.64967 63.83505 73.95053 73.56546 56.21154 38.92892 50.68977 50.02512 47.85700 48.00638 63.40763 65.44431 78.57051 88.06207 88.70172 77.81621 72.67869 75.69330 72.54622 64.18867 59.98688 53.47776 44.60912 57.91613 64.78062 68.88429 78.45522 77.29075 69.67216 54.94905 41.05884 41.05280 46.86585 56.97143 70.55424 79.38151 84.88559 90.82034 82.18063 70.93968 71.86136 63.22572 59.50452 73.04465 80.06255 92.45372 86.98311 72.25900 63.49181 66.49437 64.82364 55.55107 48.70857 47.57740 40.23298 36.57760 51.80856 58.05085 64.73352 56.12904 44.54227 57.46117 47.92317 52.59682 68.02741 69.43942 87.78757 83.23207 70.93338 62.71456 59.30149 61.63953 48.91681 38.50231 42.01511 53.06341 60.72816 69.61389 76.80529 74.78238 65.35149 56.68274 73.00332 82.60578 89.39226 88.34604 82.59051 65.88842 54.64925 50.70971 61.40458 51.50675 59.86461 66.67660 78.90397 91.24459 81.89603 71.93195 57.38754 61.74618 68.52189 66.21013 57.69786 63.85343 74.49110 86.71952 89.76553 90.48032 90.66414 91.73098 89.43802 91.38885 89.28517 78.21707 71.63204 61.94035 67.02787 74.45298 63.02995 57.92445 52.18791 42.19588 29.84523 32.52206 30.87030 34.90297 43.09174 40.00360 41.13849 38.49187 29.53030 22.92765 21.51345 22.76850 18.43515 16.84598 21.30892 26.67214 19.27790 10.00000 10.00000
10.00000 10.00000 26.13877 34.46331 37.17624 48.98335 49.17279 42.94816 44.25858 53.14607 66.39491 81.18960 80.34649 70.45252 63.16841 69.34305 62.01171 49.87946 49.58432 51.65017 54.66456 60.83034 55.76910 51.89113 56.44495 56.88694 60.88830 66.16688 74.64826 88.48781 94.57664 92.69906 85.81541 81.42674 70.92320 65.04608 66.89583 73.39249 77.28836 74.14298 64.08472 72.67176 63.33211 57.04562 47.10182 62.70223 74.96349 81.97809 82.48489 80.40427 70.09191 81.37181 92.12070 90.07084 72.38542 66.91007 78.18606 75.57089 69.06644 56.50356 42.05595 39.43217 49.81730 59.53041 70.44072 69.88194 53.55737 45.38193 40.50071 41.33797 52.21967 54.98783 61.34371 74.60001 85.96437 88.48258 79.92751 69.73728 63.50804 65.05391 74.76358 69.82066 64.72059 56.14146 44.88414 45.04039 57.13940 70.77462 81.12579 69.20574 67.14593 55.87497 39.41906 43.42318 59.12170 67.77450 63.52342 78.73444 86.03749 83.47061 78.71008 68.43315 61.04635 56.01425 54.75287 66.12956 76.78133 91.07833 95.20613 75.86816 74.41844 75.13557 71.12875 60.65493 52.15574 56.90779 50.28019 41.36893 50.11003 52.58491 63.01283 51.20074 41.65157 47.89601 50.04041 64.73160 68.78585 78.36925 89.97128 83.55820 62.30979 55.89963 51.08575 48.20995 43.00523 40.17631 54.89450 64.40594 65.79811 75.43122 78.45115 70.90646 59.39377 52.93276 65.90275 76.45399 86.39979 88.02522 75.24993 61.22163 54.36574 45.36476 50.52639 56.56506 69.42439 75.60089 80.30975 93.51060 89.21180 74.76699 61.87834 60.81322 67.56325 66.88995 55.73973 69.36093 84.81683 88.45011 81.92935 77.25429 83.73212 93.37052 93.98224 96.86114 93.53950 85.64688 77.48060 78.35149 72.94339 66.07216 65.79329 61.65386 60.45977 45.54744 30.94593 36.86267 42.27364 45.83600 52.76762 52.05026 44.80790 38.19792 30.20169 26.54725 25.90206 30.41453 26.59566 31.13372 35.17269 36.36122 28.53287 10.00000 10.00000
10.00000 10.00000 23.23002 38.11203 44.43094 48.08779 45.02918 33.96202 42.24073 56.79859 64.21373 61.59904 60.97675 55.21841 53.35291 67.02341 64.54003 53.39717 38.88714 47.55639 50.43936 46.58348 51.51728 49.76610 54.36490 62.44676 68.69231 83.27365 87.44724 96.50547 90.60009 79.02095 75.16539 67.48479 63.23115 55.44491 55.12420 66.53556 74.57316 74.18621 60.49541 63.94210 57.61454 44.03862 45.74509 58.01790 72.59176 76.18846 69.87605 66.85568 65.42245 79.54601 88.83707 86.26276 77.51281 63.07669 71.08810 74.21249 63.38977 51.42540 41.14267 35.03390 43.89430 51.39356 66.14324 62.62420 57.23902 41.69302 44.25978 50.77357 62.92235 67.70169 79.25980 81.96226 88.49132 84.23174 78.42496 77.58125 70.40052 64.02064 67.84297 65.22413 58.26814 50.33468 41.00530 44.97470 55.77962 73.41849 75.94836 58.82938 57.48264 52.24995 42.58580 49.76594 60.53102 70.17331 73.28689 80.39510 76.61065 74.32855 80.54178 72.04733 59.15537 49.79823 60.97929 71.73932 78.27200 91.01011 95.89480 87.30493 76.72079 67.07432 57.84081 56.39832 45.11450 46.59024 41.99441 38.39733 37.12254 48.62796 58.37560 42.37088 39.90889 52.25419 56.65395 69.35703 75.60609 83.52463 93.79594 76.24340 71.27927 68.96513 61.65817 60.13734 50.82338 39.26359 46.74019 52.27070 59.73888 69.44678 69.56037 68.78975 54.21897 49.54790 58.04560 64.21444 79.81911 83.31849 74.92709 65.66979 54.05665 42.09361 44.89734 57.22829 67.25887 84.58072 87.60733 88.80998 84.78734 70.26644 67.86637 55.45316 60.91645 64.93449 55.22866 64.13186 83.69830 83.99638 75.99847 70.25181 76.50759 89.87124 98.21947 95.65568 78.04664 83.10261 84.56830 74.30844 66.55681 54.76207 56.39840 55.07577 52.73169 39.78286 38.34846 45.27682 50.76875 58.09579 56.00528 44.94058 42.06917 33.99869 31.08915 30.13945 41.11808 48.43575 39.96715 40.51489 36.51613 30.95509 21.27036 10.00000 10.00000
10.00000 10.00000 22.92568 37.28672 41.05171 41.36004 32.54276 33.20592 46.13515 55.46886 57.63431 48.05373 60.32557 47.66395 43.77565 58.87674 53.17977 50.56838 38.39344 45.38017 44.04303 50.34618 61.66317 57.02635 58.22593 64.38068 71.27672 84.38982 93.60284 102.62152 102.44235 86.48943 73.95386 67.54355 60.48185 54.89391 50.03685 56.33597 74.64243 74.97154 66.35940 56.30769 58.07355 44.53172 52.90437 67.88985 79.51688 74.07336 57.95494 54.97245 60.79496 75.47333 89.33209 87.26632 77.13677 70.36467 55.60202 64.81544 60.09030 47.32317 34.92981 34.95031 45.62523 55.92856 62.26582 55.58891 44.20425 35.95824 45.38209 52.52517 62.36539 79.16128 92.69972 95.11831 87.19623 80.86030 69.74425 72.79987 72.97889 56.19874 52.96687 58.71612 51.79027 42.51879 38.67336 50.62308 59.50758 72.76949 71.53578 59.54328 45.23909 43.62919 43.18893 51.58335 51.38657 57.36947 71.87091 83.14918 73.84236 66.62640 77.70299 73.81362 60.85041 50.00583 61.41737 61.89344 73.91585 82.24961 96.18647 95.94614 88.66787 81.30564 74.27565 60.48693 50.48107 47.84208 46.40344 47.60901 33.64755 44.59304 43.93644 36.55237 40.59527 46.89184 52.75867 57.69221 63.79553 74.00042 89.01332 90.67306 84.99962 73.33215 67.20215 62.24585 57.54435 48.14699 33.45167 40.11430 60.66315 63.71985 61.27290 67.66101 54.24780 48.61259 55.93433 58.96200 79.78795 83.52336 81.85580 73.54130 62.20041 45.76854 50.88409 68.96589 65.96214 73.87165 80.84232 85.28792 81.86625 68.06760 60.20968 55.96427 58.43505 54.73728 54.94718 64.19837 75.13894 69.72368 62.49947 67.63977 77.57357 90.75262 95.05037 91.71225 75.93302 71.37623 68.20938 59.34250 54.17651 48.11254 46.30665 42.37167 39.17359 42.67853 43.42663 54.03702 55.55676 65.77519 69.29540 57.27033 56.64298 45.54358 37.35888 37.05743 44.17144 58.07954 49.58916 38.94355 35.90624 30.93950 19.61431 10.00000 10.00000
10.00000 10.00000 24.96373 34.38606 32.50640 32.19744 22.79336 32.40091 43.31132 51.61732 38.75744 44.63297 52.38380 45.43660 48.49750 53.63570 46.56989 38.84347 44.23774 51.15182 53.66828 64.93669 68.98579 66.25270 61.29490 65.71435 71.80990 86.19251 97.47526 101.32761 100.42694 95.54230 88.34799 80.60625 74.71762 63.03687 56.72542 58.34176 62.67618 65.69765 66.10042 50.69758 50.29226 41.07761 56.38393 67.67118 71.43445 63.69247 54.07086 58.60149 73.61339 84.50942 94.01293 88.48293 70.57617 64.50377 65.86889 56.91343 55.12353 52.67634 40.77827 32.43377 43.04739 55.50108 56.22341 50.62345 37.65445 48.58772 56.57215 59.81018 69.22842 80.52109 88.65329 92.46115 89.47319 77.21600 60.95223 59.57713 58.65712 53.26447 47.15962 59.63727 55.96248 43.70622 38.37022 52.36134 65.72321 76.11055 69.23755 52.51952 49.31620 48.95371 40.81718 41.14581 45.74570 59.53998 73.55393 80.34416 55.26310 60.32443 72.84891 67.75788 60.96328 46.80971 53.94157 60.03323 70.75963 87.68238 93.13506 92.80107 90.90984 83.16242 78.00993 73.17267 66.40946 58.23450 53.32825 40.89770 28.91061 35.33755 34.59841 38.19131 51.19426 57.35226 64.73913 65.86239 73.00854 80.99750 88.79407 100.27169 97.48200 71.85701 63.84178 54.64281 49.08587 43.42628 34.49943 43.69116 55.52989 53.02688 57.56966 66.92140 53.91137 46.88205 50.48363 63.63761 79.00485 84.85098 77.32088 67.31738 56.21160 47.99965 46.57289 56.36366 58.18446 65.12958 76.43486 83.30276 83.52436 70.36172 59.19473 48.49985 43.26326 52.05027 61.78787 66.88888 64.02793 57.20965 61.54112 70.52253 75.60986 90.42200 99.42627 93.02615 83.47653 72.16217 69.94858 60.22626 53.30273 46.60249 45.81646 50.74720 52.04186 50.38565 44.85509 58.40507 68.28395 75.30395 73.04788 66.14407 55.20593 51.17090 52.10193 56.46472 52.65536 61.81807 59.86429 46.14373 45.69944 31.62275 22.29902 10.00000 10.00000
10.00000 10.00000 17.48351 19.61223 17.92707 19.89422 23.58048 33.06880 34.10319 41.95553 33.70480 36.00205 42.03091 33.05547 35.88680 40.19943 33.95762 32.29703 35.49887 44.30821 50.29915 58.06731 70.88395 75.76382 81.63291 77.35098 81.66404 92.18052 97.02979 92.75482 92.03852 96.40245 92.10898 82.45390 74.52195 63.67651 55.07713 46.94744 52.48272 61.30621 68.03361 49.09671 49.45360 44.14157 45.35546 53.88966 59.75550 55.61798 49.42594 55.68104 66.43302 81.17613 92.39483 87.50461 73.13525 64.43721 59.75650 58.00867 52.31323 55.07908 44.60048 33.27263 45.70182 56.04257 49.51209 39.99682 35.43938 49.56476 61.25320 67.70845 72.28039 66.07299 73.13066 84.44510 88.78686 72.08534 59.71526 56.00731 50.43989 45.96316 47.65624 55.62431 54.28340 42.65190 39.24657 51.19807 69.79609 75.53699 76.78711 66.72204 54.00172 49.08619 41.98455 41.81007 46.12400 55.15460 74.18749 63.73228 52.75255 60.25047 63.35383 59.04429 47.48739 43.57674 51.33872 59.93349 70.85701 81.02208 81.97110 78.83154 79.21964 74.04434 68.48328 70.07636 71.75633 67.62774 54.03671 43.76124 41.10215 29.95496 27.76323 37.83108 48.86500 58.32339 73.62270 78.97802 83.06109 79.86992 83.00134 89.77366 86.12361 75.35515 64.34388 59.14507 56.62890 43.38782 39.03715 33.19920 41.73206 45.19399 57.94361 61.41966 48.00996 43.77840 52.00605 67.22257 80.82455 83.04215 66.17270 62.17925 56.72474 41.29029 50.02686 48.01695 58.35132 69.43460 79.21320 83.52528 84.32285 74.40777 60.27335 44.01353 41.36621 53.60809 61.64510 58.54628 53.61079 52.90996 58.81219 68.98910 83.76178 92.55798 101.65283 99.14384 90.20835 78.12123 74.28987 66.86905 61.82157 50.21380 53.87877 62.82700 61.36999 48.98027 49.06716 57.21731 68.01902 80.06706 81.93776 74.34341 69.33901 68.68497 58.02513 58.79145 54.42050 51.09521 52.44463 47.80317 48.18500 30.66998 24.43865 10.00000 10.00000
10.00000 10.00000 18.14725 19.46285 19.36931 20.10317 21.88314 29.39178 27.48885 24.57949 22.10096 26.52330 28.42359 25.86129 26.35388 30.60870 38.40561 43.17132 36.31285 42.65515 46.51748 53.15803 60.35693 75.68994 86.28302 89.58789 95.04081 94.45543 89.98473 77.64216 76.73055 87.19999 92.08668 81.16025 70.18914 63.30702 51.50842 45.02176 43.50314 54.42539 62.71648 55.56783 47.48409 40.03139 41.26699 45.14138 40.56261 43.73466 53.21917 65.76294 75.18164 80.24649 85.74143 79.02111 73.83917 70.85836 52.76558 48.77610 49.27888 51.74752 42.99915 31.78208 46.43400 55.33396 45.91210 35.87977 47.00429 59.77729 64.42560 64.98631 59.08850 54.99309 65.70991 75.05753 83.20994 86.09711 73.80715 61.39300 57.39621 58.19055 46.87235 39.09644 48.40179 39.60790 40.91715 50.29900 65.10852 71.78362 70.99730 58.87597 45.72859 36.25048 36.73273 44.90810 52.79421 62.71540 72.76540 68.42807 52.79182 50.75485 48.06844 44.73976 46.92282 59.52307 66.60619 71.25267 76.15538 79.57819 70.22154 67.84160 75.33527 73.42127 59.01571 57.77130 60.21338 65.26613 61.40430 57.53816 51.65261 30.53499 30.38237 41.03006 47.52730 62.17276 67.87123 66.47354 60.50144 69.65001 79.24797 75.61239 74.28915 62.69980 59.61868 55.56723 55.62611 46.39907 38.88839 31.69763 39.56366 46.21427 54.49847 51.92172 40.66814 40.72189 59.55972 68.89742 86.15141 87.43238 72.68259 58.46838 47.97021 42.81524 45.96959 52.55326 59.57485 65.85630 68.23204 82.28837 79.53109 68.46052 61.56212 43.42462 44.60261 53.62238 57.34554 47.87081 53.66160 57.77588 63.42217 73.28349 84.54867 97.54990 100.65643 104.89425 96.61279 78.84448 66.66378 64.17787 56.02706 57.83539 65.64020 72.42438 65.86916 54.17110 57.38453 67.78446 74.49192 82.76551 84.35916 78.56523 75.40149 64.66060 56.27999 44.69240 38.92359 39.02075 32.29373 32.20097 35.09239 26.14120 20.03248 10.00000 10.00000
10.00000 10.00000 24.77278 33.92241 36.09156 33.42095 21.71870 19.70925 23.34154 28.40485 31.09984 32.69927 28.91059 35.08073 39.45525 43.54809 46.04048 51.43741 48.84375 43.71625 50.49216 55.28606 63.63178 69.44033 81.25182 96.42076 96.02484 91.83784 82.32933 74.44196 65.61081 73.13335 87.40104 87.80423 82.77151 71.95791 65.38625 57.87022 45.41042 49.71274 56.84864 58.51749 57.07344 50.41277 40.19726 41.66795 44.13350 45.51594 49.73839 57.53184 68.90437 82.77377 79.50778 64.57060 63.16130 65.05853 60.20686 43.84984 40.84508 42.74606 43.65914 28.49219 38.11874 45.19824 42.72098 34.32635 52.03245 64.13651 59.95633 51.95018 46.26649 53.86926 62.90545 69.98113 89.92497 92.78651 84.13836 69.44545 64.73329 57.00823 46.60049 37.90555 38.75058 34.57922 53.31675 61.31343 66.93739 70.45596 65.18819 53.71188 47.28681 32.95516 31.02273 38.50499 55.77125 68.08766 73.68106 63.71716 50.36195 37.93533 38.44848 44.74037 45.81994 50.32607 59.02631 71.55575 81.04739 78.03805 68.58751 58.46573 63.94184 68.50334 67.18176 47.67074 48.90042 55.75385 64.74109 54.84617 47.18850 32.11455 33.26474 46.86441 56.99266 62.02343 57.73455 52.77930 60.78484 71.45231 80.27881 73.70940 61.92429 54.12413 51.93054 46.65997 44.70204 40.55937 36.85018 32.34308 36.20348 46.95524 46.44108 37.98395 38.47424 49.98029 60.44793 72.77176 81.83261 86.58606 73.89465 60.94316 57.81249 47.72896 41.21477 50.62153 48.26714 50.63424 61.31413 78.39644 73.45687 65.47704 55.96514 46.58428 40.76281 50.20386 51.10679 43.50172 57.47421 71.68952 68.61805 76.86819 90.72578 96.64385 93.87535 99.18068 97.16486 87.91664 78.59916 77.97306 59.95169 63.49526 76.11491 76.76747 67.18314 59.73343 62.33966 76.69445 83.76792 82.30696 74.77549 67.38190 64.95302 55.93959 46.68643 42.71882 34.58189 24.98681 21.67450 19.93785 21.59583 19.81592 19.81866 10.00000 10.00000
10.00000 10.00000 20.53811 33.27760 44.29945 43.14863 33.23846 28.90274 28.13886 39.17336 43.59796 48.18738 40.10287 32.57838 44.46401 56.49459 60.48190 62.47181 57.40107 49.29424 51.50486 56.61490 66.67451 73.27336 84.23003 92.33747 86.46204 79.36665 81.58227 79.32670 63.79659 69.51189 79.69953 79.62299 84.03234 77.20230 71.53417 55.48486 45.41353 38.78604 45.43394 55.99416 60.07811 52.35918 42.54720 39.94265 54.50433 66.70688 68.96684 64.14029 73.98887 81.89901 81.65824 68.88185 59.38424 55.62960 59.87758 56.51614 47.39998 38.13936 44.82243 31.54239 37.60986 47.48115 43.43471 30.12815 40.02638 49.52901 44.85256 42.39257 49.81876 61.68478 71.93846 82.52388 89.21562 85.29002 80.29984 75.71750 75.93109 61.48650 56.34148 44.54761 35.28436 40.71151 51.02406 63.59430 57.33647 63.55441 66.33324 57.19665 57.83319 45.73427 32.72731 45.53908 54.78046 62.78044 69.24532 58.28162 49.22429 36.18179 38.43612 60.31425 67.43215 62.00252 60.97674 71.66818 84.54258 83.00807 74.25048 56.63919 54.23076 63.30828 58.39077 45.35869 43.48214 53.44823 59.20129 56.39061 40.28930 27.48178 32.34488 49.23154 55.05658 52.86197 46.49493 51.36247 65.03335 72.18836 82.71738 82.83142 67.46144 57.77519 53.31903 58.61881 58.05377 58.52549 49.75509 39.73403 27.55599 37.65313 32.86180 48.03080 51.79996 54.96822 65.81748 72.23764 70.67779 79.43645 74.15507 57.27452 49.12935 43.87139 39.38412 47.18876 43.41352 55.48353 68.86766 81.83857 77.02277 65.34080 56.52403 44.18372 36.65452 40.97409 40.33764 44.16144 59.57726 70.54425 77.58792 82.29318 94.09792 89.85859 80.74562 91.01770 95.76205 91.60896 83.91442 82.93407 73.94223 75.27654 85.12190 80.86644 80.99423 71.30834 73.51327 81.64714 84.02418 69.05013 59.35504 57.05813 50.17194 51.03476 36.31572 32.00874 30.70864 27.93320 33.09951 31.38527 25.31268 24.81805 24.43627 10.00000 10.00000
10.00000 10.00000 22.26205 30.33360 45.48069 48.72739 43.75343 39.82787 36.98145 41.73281 47.95699 57.22418 52.07527 44.30046 41.23691 48.09301 56.09550 64.51051 64.70062 56.32775 61.57389 67.34785 76.33026 89.11321 96.02226 92.80414 79.93440 69.91534 69.03532 72.67345 62.71305 58.52507 61.63301 72.42650 83.36417 77.77564 72.20298 60.47175 55.34466 47.31723 39.72406 54.41043 55.35911 48.35754 34.08740 37.86683 53.54463 65.06703 74.40084 82.30732 91.95878 91.63545 86.62465 67.92672 64.24171 50.82778 46.91064 46.98719 45.43616 31.79206 45.61037 39.98410 30.72809 42.58189 36.64547 31.19332 38.21015 35.05849 34.34430 40.36972 49.38114 59.13531 69.08176 82.84833 83.62445 77.15782 68.90171 70.23855 79.35984 73.52855 60.96792 51.04689 35.80333 37.52206 53.71020 61.44433 47.82917 62.18797 67.94001 71.96634 60.77761 47.18415 31.01789 33.10867 48.18130 60.14379 69.33939 53.49862 40.56099 39.07764 47.80967 57.85013 72.19019 72.09634 74.38619 78.74220 88.93418 78.61138 66.45942 57.64495 46.24694 48.78551 49.55488 49.65180 37.81858 42.89831 53.64032 58.05009 38.16311 26.41266 26.61196 33.15895 36.70010 37.21141 39.18184 44.98969 58.95622 63.03978 73.62832 82.13629 78.92241 68.65007 64.98090 70.32550 72.45704 60.51980 47.86655 45.68511 37.75201 28.64070 29.72254 55.45317 58.20967 60.63683 56.87527 56.95503 69.59265 76.89001 71.15630 62.14026 50.18690 49.34769 37.98702 39.16300 46.51258 58.70132 73.48060 83.54330 78.66574 63.51717 56.49718 48.08219 34.77360 34.28853 42.57175 56.21912 71.95828 72.45519 76.99346 82.10578 93.00202 87.93140 73.73717 79.90140 88.22554 82.52920 78.59308 79.00882 78.23002 83.32484 83.78774 86.41505 91.64919 82.95337 83.00713 71.01283 66.88775 63.87901 57.12263 45.84324 42.19913 47.72679 40.95131 45.63437 41.00118 33.86504 44.92697 45.72832 47.14107 37.82099 20.93132 10.00000 10.00000
10.00000 10.00000 25.44244 33.01627 46.24924 50.25007 48.22731 50.87790 47.76594 51.43861 54.91028 66.72680 63.16834 57.24305 45.51072 46.79499 52.37942 59.05924 79.33712 71.87972 69.76853 76.43566 88.47545 93.08907 96.92912 92.12126 80.05953 71.91386 60.56263 62.83816 61.90891 50.80847 56.63439 71.51263 82.96123 73.40984 59.79486 54.83653 52.57918 49.33537 37.60657 53.07204 47.11181 40.21793 35.50554 45.05679 57.70545 72.48784 80.42110 87.63446 92.74693 93.79020 81.36626 74.21997 73.77757 66.62384 52.56630 46.65480 41.52576 33.46175 42.45101 38.08712 29.24283 42.74748 34.83123 30.37736 31.27541 36.56611 35.96500 42.12562 47.91882 56.45048 70.64015 82.63563 80.14819 65.37559 56.91911 59.85945 66.70370 64.22219 65.17554 60.86631 43.15648 33.20104 46.81534 45.48811 46.77789 61.96709 69.30108 66.97941 59.72351 46.03260 34.11997 30.97595 41.87685 55.46225 59.39154 48.90959 38.82777 35.21399 51.19841 59.00930 65.00680 70.93854 71.03473 78.20809 89.10674 87.08494 74.10789 64.62238 51.24023 40.93904 36.42850 39.51417 35.63549 38.69102 49.76308 44.21143 30.88752 25.84855 35.91126 39.41222 43.18655 46.78574 54.43417 55.91196 54.12907 61.63243 77.68242 87.38222 88.28914 76.98900 76.89569 72.39420 67.51344 59.76113 48.92531 34.30691 31.14398 32.77696 41.88852 48.95324 54.85530 52.44900 44.21418 53.12099 64.17999 81.02142 79.62138 67.72574 53.39433 50.02772 37.66170 42.34558 53.79808 66.75974 72.99837 79.19917 73.80306 60.57498 50.87745 49.52981 38.31641 39.66359 55.57170 62.15144 70.02920 66.01000 66.00161 80.34849 87.62251 76.61686 69.59430 79.62500 86.75458 79.59967 65.50646 68.14514 74.95048 76.67102 70.91929 77.58821 88.31654 90.43276 82.41650 70.06561 55.54856 55.40653 46.42343 42.88590 40.89394 35.86709 37.73633 50.47673 48.41912 49.13370 47.99589 46.01585 46.42761 37.58114 22.74688 10.00000 10.00000
10.00000 10.00000 24.84514 30.99567 39.77323 37.52372 37.25148 49.16994 57.34976 58.74289 62.36765 67.91226 71.11305 70.34181 57.67837 55.63126 57.01658 65.39819 79.94437 83.54125 83.03433 86.69301 91.65164 92.43073 80.82466 84.27806 91.43349 74.06108 69.55197 53.04399 52.71221 54.86231 71.59450 76.21063 82.71697 75.95075 59.93674 49.89986 43.28977 38.79940 32.94727 45.06375 48.92571 36.46597 30.55579 41.92412 58.18577 65.57655 61.53109 76.38465 77.68200 83.69687 73.54499 69.14218 58.23611 57.02499 46.94097 45.02355 42.32714 36.25916 36.12999 38.18980 27.80466 36.29621 31.44612 30.32890 38.86474 50.95720 51.27877 50.68685 53.64812 53.11624 66.11275 79.25451 85.62343 73.01629 61.50916 49.52931 57.86780 51.32007 56.61811 49.97827 47.09731 36.97566 35.05756 32.99749 42.99487 54.94967 64.21258 55.48538 47.01065 43.47689 34.60324 26.53718 32.41285 43.98891 50.99195 43.04495 31.25618 36.00742 42.50048 45.94870 51.31221 55.22358 65.39948 79.27489 77.18199 76.14560 72.36715 69.56730 61.46899 49.77225 43.52686 36.64192 30.38768 32.49493 37.84718 36.13288 29.31928 26.26756 37.03550 49.23097 60.53462 65.85424 62.83320 66.92228 70.23811 74.39847 84.60848 87.78306 92.27715 89.69145 77.38186 70.79163 55.10856 45.76627 39.80371 35.14820 34.24629 30.06837 39.23850 45.47483 49.01066 41.85263 42.35692 55.66131 61.82935 76.26819 75.71451 69.32143 50.17651 42.72761 34.44252 38.40089 55.51581 61.57918 64.85623 65.57238 70.25143 61.94284 45.54715 46.73301 38.11098 43.96488 53.61988 55.01312 52.54506 62.34279 75.76878 90.78022 80.82968 69.09554 66.67405 76.92211 85.36154 80.68528 69.47486 58.48489 60.48530 62.73111 60.95301 69.49882 84.84342 91.28185 83.34766 77.96199 71.43714 61.43840 56.40114 53.87935 53.12151 47.91576 50.61827 59.87634 62.62079 60.77456 48.87192 38.06214 32.04011 24.72660 20.27473 10.00000 10.00000
10.00000 10.00000 20.47830 25.24236 24.04292 28.17150 38.93480 49.63162 54.40840 55.96609 55.48607 52.64562 64.48214 67.85277 66.00361 68.17731 70.86511 74.20157 81.87438 84.99229 87.66036 94.07271 90.49126 77.92784 71.85703 83.01218 89.49793 78.67892 72.92114 65.03315 49.37160 53.38090 69.47050 69.83650 71.09183 76.33460 68.41914 60.31633 47.59277 37.72648 29.79984 37.83412 40.21874 32.32125 33.28894 43.49712 59.03335 61.55000 52.88455 58.39523 70.56268 80.39460 72.12354 62.23387 50.18547 48.13547 46.07518 42.03623 35.41423 32.81869 29.01050 36.05450 23.00564 24.22855 34.41340 43.44564 47.61268 59.09605 59.79021 65.72051 59.67102 65.64638 72.30511 79.71994 76.31024 60.26835 54.95647 47.46221 43.84692 38.83455 43.62092 40.10320 48.53742 47.37642 29.15098 35.77157 50.35753 61.13432 63.83958 58.80675 50.37643 39.81490 29.73907 25.95797 37.82398 46.05164 47.96082 35.84380 31.89881 36.62823 44.64407 53.16991 61.14185 60.07253 68.88956 79.18161 79.48164 67.87151 62.60694 68.40603 65.55868 63.51190 57.71822 44.83202 35.77725 29.66280 26.26877 28.01394 32.13971 33.27359 37.61579 44.29227 55.62414 67.02813 75.80343 79.49069 74.79616 81.92949 85.08206 82.45130 89.39498 83.42486 71.84202 63.48830 50.89237 41.77217 42.64609 43.49376 44.16744 32.11503 32.72628 40.37046 36.23688 33.80646 53.79073 60.40363 67.43069 73.37489 69.69053 65.14424 59.53021 46.66938 33.03437 38.34269 52.32434 54.22971 48.19759 58.24286 64.94481 58.06923 47.87158 42.78150 34.99011 38.85471 46.79992 43.74934 54.82684 66.62182 82.18852 84.53905 75.87292 61.64336 60.35946 69.45261 84.01736 78.10034 66.71883 58.73242 51.56684 57.34388 66.28722 77.15317 90.96374 92.70964 94.17372 90.66465 80.99368 75.18014 67.63286 65.08550 65.64896 61.17908 63.15522 67.96137 70.20259 61.39956 47.39455 42.39215 35.87685 34.04705 20.86424 10.00000 10.00000
10.00000 10.00000 20.08062 23.22025 27.52920 25.75086 29.74502 39.32053 37.06928 39.45290 41.31893 45.47109 53.55664 60.24195 73.89508 77.70747 80.96543 80.88188 77.15283 70.97214 87.18200 90.74782 76.22443 68.09594 61.13433 79.45478 86.41471 82.10972 64.70385 57.68521 51.49574 46.14149 56.55766 57.25890 63.01681 75.67916 78.33442 68.75961 55.20456 52.43420 43.13601 29.79410 30.49241 32.19077 43.81871 50.42803 59.35770 56.64470 48.83976 65.47401 74.11171 79.54371 80.20901 70.21424 58.75588 66.24345 61.97940 61.31643 46.77154 36.81552 28.99968 24.03750 21.25062 26.28472 42.64196 52.94051 51.80629 51.21823 62.95580 73.70899 76.98329 77.97927 80.44598 90.29876 82.71562 59.87975 56.85116 59.33305 57.71339 43.79867 42.39265 33.43205 34.14344 32.11158 29.36938 40.85524 46.27077 64.86412 67.80338 64.80506 62.92218 45.87844 30.70244 30.09847 43.57136 42.81821 33.52428 27.53499 34.92110 41.98222 51.40543 59.75973 74.83351 77.04721 79.32164 85.54941 85.49541 73.32916 60.44654 53.66927 52.31939 64.59459 64.64756 57.09507 52.00674 35.70281 26.87015 29.38732 44.39105 40.64976 36.15090 43.61575 51.36510 68.88430 78.02563 77.36268 65.14582 68.78580 74.98433 69.73982 77.38658 81.43004 61.18574 56.33784 55.12674 54.54287 57.85596 56.10083 43.86782 33.97569 28.10236 31.98209 33.36771 41.41932 43.76285 50.95622 61.43881 71.04632 66.36521 54.88749 48.02073 43.92324 29.78520 33.17024 50.67413 48.35930 42.42674 51.68368 66.70330 60.23977 46.02865 38.09273 30.82849 46.38586 44.82738 44.60612 50.63931 59.59673 73.28606 77.85425 73.28613 59.57015 55.19117 64.93864 77.45316 74.36207 61.58161 53.29102 44.80911 61.87249 66.52250 74.23071 84.90568 94.91744 96.71912 87.70902 82.61526 74.27083 74.62469 74.37556 70.01527 61.85809 59.29872 52.95861 53.23315 54.58622 46.44443 49.27204 49.30044 38.46549 23.47718 10.00000 10.00000
10.00000 10.00000 23.75595 35.35105 40.02862 32.78732 28.06644 30.37884 33.23191 41.40950 45.05481 56.45152 53.05158 65.83557 78.61544 78.46026 78.88218 70.23254 64.48549 64.17040 76.64104 73.64986 63.68635 55.77940 55.12646 67.11534 81.32474 74.84237 65.31271 52.29733 54.51851 45.31256 43.44600 54.24638 69.74256 72.70598 73.38212 65.07999 56.60481 59.00385 41.44664 34.95611 26.31159 34.92964 47.94068 59.73830 60.53140 51.37303 48.17414 64.05437 70.17332 72.23418 83.09128 77.29782 69.21277 72.28049 64.18426 55.36930 46.13474 45.13086 39.21445 35.01769 24.88905 26.96290 43.06685 36.06667 37.50587 44.53559 59.65850 73.87841 81.96247 85.76575 88.52328 91.22234 82.18802 81.01088 73.31120 67.51569 60.33712 50.72356 51.88382 37.50791 28.27665 24.16742 35.39052 40.56486 51.89413 65.83843 65.90336 63.40168 59.84752 38.32494 30.94129 31.93588 32.52948 27.48339 31.41259 34.26879 44.79153 52.00650 60.15235 67.29312 76.93322 78.62315 75.35290 81.77825 82.55612 69.44134 65.33334 58.94777 50.82706 54.69363 58.67258 51.89733 51.89958 41.19966 27.52430 32.82494 41.34142 48.71700 49.45555 56.53514 64.28931 73.09212 78.96968 70.58646 61.10702 60.15921 59.55624 64.15573 78.08381 80.83215 74.88001 75.49192 68.01956 63.44365 58.15651 56.77624 43.76036 32.19120 24.64194 30.81232 39.24464 50.21709 54.16857 61.64879 68.87444 75.47199 69.69652 53.53598 42.64079 42.47802 41.40809 37.02906 44.31442 37.87447 37.84287 51.92749 67.32644 65.82825 51.08801 41.82924 30.71290 40.16662 38.27100 42.81540 48.21405 60.40828 76.66919 77.81788 63.52727 64.18092 50.35809 56.64101 67.27073 71.10085 54.03560 45.63415 46.99928 56.41715 66.33424 72.55867 79.56498 82.00993 82.00020 76.99462 69.60736 64.38959 68.06830 65.82572 61.90808 58.44143 59.36037 47.12642 39.06580 45.36142 38.69472 36.65381 38.76299 35.15718 23.36236 10.00000 10.00000
10.00000 10.00000 23.00851 34.20567 41.03343 43.67920 39.78112 44.62058 45.29901 54.78757 52.65367 61.35918 64.37247 71.15742 75.03282 72.50850 68.21871 63.97348 55.61483 65.20617 78.84992 67.54311 58.86870 50.34167 57.46044 64.48976 76.29729 70.65519 56.42812 47.88048 44.32462 42.14875 43.65547 54.25134 64.14406 68.95817 65.47661 50.86258 42.74965 54.43000 41.82445 32.11472 32.63181 43.85197 57.19203 61.63863 57.33891 46.53109 49.90437 50.94081 59.73937 75.50907 85.87542 85.44945 79.95343 70.57955 56.81030 52.92977 62.00096 55.92262 46.99758 38.81541 25.63687 28.23755 29.91376 37.98573 46.18371 50.47199 56.98199 67.70622 80.18348 80.00108 79.08966 80.46222 77.57234 80.83480 80.12566 62.91041 61.65743 63.90218 58.89630 43.93447 31.60751 29.93605 44.33637 51.56393 55.21996 65.20885 60.87416 50.64917 47.25412 37.37360 29.12993 27.50400 24.42751 32.36913 43.27756 49.20470 48.99617 62.15159 68.11635 68.49172 65.94656 63.83070 65.21417 70.98891 82.00145 66.85036 55.86865 51.90066 49.31181 44.23764 46.04298 45.59139 34.18004 30.83873 23.97540 31.13241 39.92935 52.85727 64.56965 64.32350 71.81500 77.30532 75.74426 61.60680 52.46584 47.27848 49.51693 63.30802 70.29697 81.78767 84.69691 83.24193 71.81397 59.48034 51.29589 49.99184 45.29047 33.89095 22.33611 36.77425 45.69261 57.28461 68.21717 71.37904 73.36271 76.92058 68.36767 57.41464 59.08183 57.63962 52.02692 39.92997 28.51064 33.14031 37.50112 52.99863 64.99386 62.28847 47.42485 40.04033 28.85104 32.61819 44.11902 53.51589 64.82191 69.95139 81.12575 80.50868 59.80318 49.62503 45.65993 51.70238 62.82582 62.95572 51.05624 41.08017 44.35789 48.23232 62.40089 70.97175 67.46773 70.78249 81.64310 79.24667 64.51720 55.20010 56.48323 55.59262 50.33304 46.58231 49.75200 40.47657 39.70703 29.02887 25.11535 26.32955 26.00575 27.10645 19.02268 10.00000 10.00000
10.00000 10.00000 18.51547 25.61048 31.61820 42.05784 48.83493 55.05978 56.28451 60.49964 64.75509 69.80670 72.75127 83.83647 77.96695 65.58236 54.91644 47.16328 49.69157 62.66070 79.60567 70.18330 60.57148 50.74356 47.66717 62.06651 65.47104 68.82046 68.74163 54.70627 44.63202 34.67841 36.62536 45.96965 58.46851 68.96346 68.33197 51.71440 41.58774 38.42240 33.29288 33.59750 28.17349 41.91296 50.66374 60.40633 48.02465 37.05169 44.13686 47.73249 58.55921 69.40926 85.04659 85.46393 84.18764 81.33073 66.69372 63.94858 66.07143 59.60238 50.02059 33.93841 22.40045 28.04725 31.44745 45.08974 50.60501 60.06088 70.11929 72.62907 78.50364 71.02118 66.57797 64.75239 71.18617 78.94176 72.54480 57.05588 53.24878 62.46233 59.58459 50.22353 35.42087 28.84447 40.49231 50.06741 55.11287 67.03410 62.52671 43.90400 38.65738 30.89897 34.69111 25.01750 30.22366 39.94994 45.47849 53.72028 59.47808 71.88849 71.85513 63.43949 54.74485 49.22175 56.50463 69.98766 82.27191 70.45047 58.02492 45.61187 41.33766 33.02699 35.35012 45.31599 34.43350 20.79325 25.31753 45.86886 50.58782 52.03276 52.97978 54.48755 60.78444 70.63101 71.67471 55.65669 48.31393 43.49920 50.54751 57.28321 71.41585 84.25607 83.88634 79.16811 72.22191 62.27321 50.13654 38.04813 36.20064 29.73288 23.90336 32.33343 43.16728 55.15290 67.65812 77.21286 72.24503 73.26261 71.80093 76.84704 69.19713 58.51393 55.86702 46.82564 32.24115 30.44494 46.14975 57.31167 65.38857 58.26097 42.98084 32.96803 30.76797 39.78950 47.19325 51.95212 69.24651 76.04756 79.52088 72.65396 55.09899 43.03060 44.22270 57.99664 66.54895 58.89354 44.98011 38.28108 48.24105 55.51909 55.29433 54.53730 57.49381 69.14263 81.28767 82.94546 74.10436 71.56666 53.91221 43.97785 38.45017 36.68835 33.45149 31.87929 27.98148 28.92579 27.31007 22.51448 21.48995 27.15531 18.68142 10.00000 10.00000
10.00000 10.00000 20.02666 22.17072 32.34468 36.21968 39.75155 48.77535 54.37615 54.43472 56.87136 67.60024 80.39500 84.58753 78.49396 63.33362 59.24567 46.49266 47.45924 58.00286 73.91926 70.51844 61.31257 50.31529 39.89997 51.14886 53.59785 59.62367 72.28615 65.25949 55.82673 39.06262 33.21086 54.19371 63.82756 71.91127 70.92762 62.95249 49.24903 42.73770 34.13557 27.70203 26.14486 32.54447 52.38846 59.74908 40.63170 36.85565 53.02758 55.77047 66.91112 79.60829 79.15586 65.97026 72.75908 76.73824 78.21714 71.84223 57.88248 47.52225 45.49842 32.68292 23.62130 25.24546 37.95618 43.68140 47.98252 59.82698 66.68082 71.51450 69.87360 61.92858 54.66772 56.11495 61.91147 73.36258 72.28162 51.05688 43.09319 52.49460 59.08878 52.01236 38.10573 28.29759 31.78117 38.41411 50.33773 62.92514 62.99655 51.73233 47.22299 36.23187 25.86176 27.14917 43.39910 50.47396 49.78926 63.50679 66.57313 74.46692 71.62914 59.37597 44.36364 47.78930 65.70701 74.74302 78.51946 77.36128 65.20739 51.58319 42.93280 32.24155 27.40905 34.41500 32.43411 20.35743 31.09164 49.59919 45.55472 40.34800 42.30123 47.45551 55.18918 71.85470 70.76961 56.00776 44.07404 44.90136 62.10779 64.71509 80.07994 85.16471 75.44199 63.93942 62.41103 67.56767 58.06472 45.85518 38.91418 27.41124 25.25776 35.92111 49.36733 57.53327 60.18355 65.07512 64.70384 56.51212 60.34904 76.85621 72.29234 55.24496 41.77318 39.78615 28.45715 37.64010 56.04881 53.17372 58.49304 53.01802 42.86600 29.68657 28.71126 36.82234 42.07453 51.94381 62.95943 73.82579 67.53661 62.78914 59.12667 46.13731 46.09169 60.63325 68.79327 64.53369 47.21216 35.24219 46.87773 50.47603 45.99792 56.85480 68.42999 77.83353 84.62628 82.19572 82.27855 68.41127 60.47129 44.62368 38.71146 36.41229 43.68678 45.19435 39.54661 36.71139 41.96303 36.00472 34.05778 32.93883 24.97903 10.00000 10.00000
10.00000 10.00000 25.09641 26.93163 26.45196 27.85828 33.09707 41.82639 41.90361 43.76593 52.90914 60.79510 80.93594 79.99916 71.47554 56.71544 52.86588 44.62776 44.75491 53.82724 67.50685 70.60212 62.53904 45.61853 38.18108 44.61888 46.68443 56.15953 68.14367 65.95137 58.19600 43.74928 38.19366 48.48185 53.81727 59.25923 74.54204 77.61737 65.56207 48.97910 45.19124 39.25611 28.19994 28.84451 49.64696 58.45517 38.21289 34.62702 48.21329 49.93539 60.86331 73.87476 67.97434 54.79206 54.73523 63.05275 69.63435 75.05991 65.99503 48.66211 40.62035 34.22885 24.86565 19.87339 41.32936 47.86705 40.84372 45.53080 64.13996 64.85841 60.61818 53.08479 48.99800 47.74727 58.27215 71.63397 66.77707 58.60106 39.97972 38.97376 46.85005 42.33246 35.62894 24.43067 26.53164 33.60139 44.32908 54.21440 57.04000 47.82294 39.76459 28.74726 27.35503 34.83427 43.92612 44.10979 51.46317 68.42381 73.06254 64.00085 58.50550 54.39979 39.16877 53.37363 64.02759 65.70510 71.92650 75.91949 72.29951 58.52240 48.47642 48.13520 38.10248 26.97859 35.43250 27.88637 24.79789 34.33119 30.28424 31.68827 43.94675 59.08773 65.96337 71.98227 67.77895 51.27574 42.90846 47.49603 56.80434 62.57875 73.22157 76.28886 62.77242 62.48623 55.48315 68.04904 63.53000 46.57578 43.32133 28.20527 27.61987 40.75008 46.16270 44.33856 46.99645 64.11911 62.86691 51.40320 62.38070 75.07835 71.32773 50.96843 44.28266 35.58956 28.12573 27.54868 43.44515 36.66451 47.30042 54.51143 49.00835 32.61178 23.87388 29.65472 38.76526 49.51781 63.06046 68.80983 59.87673 54.65634 55.30266 38.56815 43.70984 48.72178 63.83706 67.42365 50.01254 36.35562 42.50414 37.83255 50.33698 54.58629 57.24426 74.20677 72.89471 72.51005 77.51707 73.67729 60.40316 51.09781 51.49636 54.88224 56.59589 57.15263 52.80242 45.42209 40.39386 32.84898 29.18725 24.23436 19.13801 10.00000 10.00000
10.00000 10.00000 24.90188 36.08568 41.58801 41.55115 36.79086 40.64636 44.45343 47.54134 63.52220 67.46272 76.55506 76.20508 71.29441 59.57596 51.15070 40.32580 45.17885 55.97406 70.63805 74.09836 67.61255 54.80173 46.55987 34.83919 42.19926 58.07601 61.80930 56.29016 44.95034 42.59241 32.53291 34.06840 42.43984 53.66465 65.63827 75.70632 73.24262 56.79458 47.55839 36.19919 31.05862 34.62005 48.09978 48.52455 33.00444 34.66489 44.94115 46.79920 55.72760 69.60812 69.03418 54.12531 48.33352 56.27210 58.74103 73.92483 68.86738 53.79444 46.40901 44.16399 31.94573 23.03505 28.02760 31.40098 34.29000 46.05142 60.80066 62.82046 50.38548 43.86994 40.88217 43.18368 52.76656 68.38097 65.20134 59.71008 49.99145 36.39055 29.58639 29.14111 29.74111 20.98835 33.90101 39.69967 52.82006 57.80665 53.52319 46.30481 36.88289 28.61297 27.10546 34.06027 35.51237 40.44915 56.32847 73.15364 72.07087 60.51651 50.26887 45.23446 39.84208 55.97605 55.74843 51.39728 57.34541 70.65917 74.36997 62.26643 58.76551 53.81461 43.46866 33.71443 24.61885 25.35307 18.36111 26.09137 37.63302 41.34010 42.16161 54.32450 66.08961 69.60095 62.36758 46.03293 35.43944 40.06226 44.08120 59.42971 70.53922 67.93575 54.60464 45.71287 54.63695 63.83027 57.94551 42.12354 32.74999 26.57065 28.75805 36.70484 36.96996 35.10220 48.29657 67.15561 61.82342 48.58507 53.94635 67.06332 74.64581 72.55436 51.36783 46.11291 36.77503 25.47805 28.37979 35.03301 52.31828 57.50726 53.25267 43.27951 26.80669 27.35476 32.78253 49.11530 63.90946 68.08419 63.05471 43.69691 41.11514 33.03710 41.49953 51.10695 60.67562 56.92909 41.88706 34.41431 31.60470 34.70666 46.92045 49.19660 63.22885 71.64803 72.46269 59.73613 66.07997 71.93250 70.73317 64.25241 62.93231 59.49646 59.76764 55.03674 49.94754 39.44833 32.32110 33.44824 29.22331 24.04297 25.76084 10.00000 10.00000
10.00000 10.00000 25.58819 38.02209 51.59446 52.03010 47.05421 58.02692 54.35966 58.28762 65.69395 64.33235 65.75101 59.01032 64.88350 65.58788 45.16691 35.48350 40.00720 55.03675 56.87626 66.04195 68.21423 61.27360 49.77605 33.87183 42.35537 53.92048 61.44557 57.74060 40.53377 32.88630 26.75920 29.68657 38.37044 45.59109 56.22418 68.78020 66.05261 54.81625 46.14333 36.00165 26.25595 27.13039 42.56082 35.72374 28.71744 35.57036 49.23902 53.01076 61.64134 72.72067 68.40487 57.58708 39.96035 44.60683 60.02846 69.42576 70.31603 62.78577 55.07933 54.41206 45.01731 25.77062 21.86584 37.60829 45.53649 55.70692 63.25693 53.33209 45.21603 37.62987 35.75760 40.79495 53.36180 64.43756 59.66593 46.89017 39.40428 36.97490 25.43375 23.15398 25.00210 37.26233 42.10459 49.28756 57.62953 55.02003 49.47029 37.80686 32.73958 25.18521 21.62413 28.90438 40.70131 49.96288 54.94312 64.67904 64.11219 54.83399 42.02370 33.02883 36.78767 50.34522 48.45156 43.82292 52.38399 56.20736 68.26703 65.41101 56.54261 45.75066 35.25788 29.17943 20.56171 16.37895 28.90223 33.74781 43.00715 53.86227 54.77430 57.70684 65.30446 64.17669 54.23184 43.00046 34.96521 37.20630 50.07605 63.92891 66.16713 67.08381 54.41319 43.67195 53.72153 61.25211 53.26941 35.20431 28.31618 28.05950 20.91931 25.73246 37.13830 42.00806 50.51219 64.87549 50.05080 42.69659 48.15226 64.88609 78.24871 74.99749 56.95935 46.92330 43.23581 36.59762 26.04267 39.57608 46.18475 62.74671 60.17028 43.29130 28.46243 29.26817 36.59798 49.57051 61.20228 68.67245 59.22704 44.29919 35.37821 36.00810 50.32558 55.10773 66.54883 59.06111 44.63333 32.52147 37.01913 43.86325 47.67088 59.78111 73.89423 76.72805 66.04686 51.70054 62.52891 67.45469 69.66534 75.82462 79.22774 69.38248 55.86600 49.41169 44.12012 45.18749 45.74311 42.78302 35.08248 32.15131 25.95681 10.00000 10.00000
10.00000 10.00000 24.42797 32.20575 41.02453 42.60540 43.61489 64.06147 62.78036 64.48716 63.47983 56.35353 49.25538 51.01067 66.61914 65.43322 51.90435 39.00657 34.79431 42.73642 46.63279 58.93764 67.67986 60.46786 46.75938 37.39206 34.84838 42.47673 57.29844 56.53988 44.51122 38.28852 29.12299 42.46332 53.99521 56.21467 61.09960 70.54045 67.52422 49.33081 37.36395 31.26079 21.20100 24.65191 34.04717 21.93808 29.91945 41.33443 52.62862 62.87680 68.71162 70.22788 59.56826 52.83047 39.06469 42.57401 59.33830 56.75338 57.45961 63.51881 48.62500 41.40352 39.56695 25.10399 23.36924 38.93550 46.58157 59.01059 64.20536 50.54107 40.26609 32.75288 32.35442 40.42519 53.05909 64.45343 65.19270 57.16914 45.01125 36.16726 28.13309 19.10546 21.04415 39.59725 54.88374 57.71429 58.37036 51.03077 44.07795 35.31833 28.07348 27.89739 22.18486 22.81544 38.06607 47.61357 44.94950 52.92996 64.69924 60.96842 46.06933 37.47606 31.41707 40.83319 38.47929 38.37236 42.68359 53.28549 68.21898 68.45259 62.09680 54.23452 40.98985 32.35684 28.14331 23.71689 39.31621 44.99051 50.67283 67.46937 66.80410 67.95188 68.05445 64.16135 50.03393 41.81075 31.12966 35.65738 53.06596 59.48807 60.26701 49.71601 52.63693 39.97138 45.65868 59.61449 56.29798 40.81877 32.37311 18.42256 23.94107 30.60737 40.31731 52.60351 63.89293 61.97999 42.32773 38.48872 43.95009 61.40572 68.23936 75.99717 64.13026 49.36500 37.95939 37.82982 24.15793 38.39207 39.29331 56.95454 60.35716 40.85970 27.74063 27.68210 34.94983 46.19419 62.28434 66.76325 52.47421 39.92408 30.63732 29.33828 40.38612 50.62151 62.02982 51.12287 44.55377 28.65519 31.49570 47.05283 58.61876 67.24626 78.20831 71.99644 62.09787 47.54849 55.49856 56.60618 70.65379 77.67992 73.82826 72.96068 77.57253 69.34815 57.57977 55.31778 49.63125 46.54927 31.73019 26.77784 18.43518 10.00000 10.00000
10.00000 10.00000 20.34136 24.24989 26.31529 35.29064 47.88692 49.12315 55.63437 59.66377 61.05645 45.73853 40.25731 50.56832 61.35719 61.15059 47.95630 36.16346 31.05813 39.46315 42.42949 58.62028 62.92430 51.68177 45.88608 41.47373 30.88388 31.31311 50.09763 53.65869 41.54338 27.59243 32.41858 38.83846 55.72964 56.81136 57.96874 66.36644 60.56412 50.89734 44.88655 36.76002 21.69075 20.51375 22.16853 23.25199 38.78120 44.67069 56.40475 63.11932 59.65351 61.30930 55.55396 43.54751 33.57979 36.83407 51.71999 47.32055 52.87025 55.72416 46.85491 36.77996 25.16364 21.16329 18.99608 33.22162 39.11211 60.14230 67.20680 57.42675 43.42621 29.77204 35.17049 51.84479 61.55370 69.15698 65.04368 59.00333 54.53199 43.32915 28.73258 18.60933 26.11150 40.13477 51.20448 56.88162 57.64071 57.21127 53.64899 43.81780 39.34954 33.63126 25.93711 24.82832 33.26509 31.72603 43.45181 53.80393 63.22391 65.04426 52.17800 42.73186 30.68557 30.74336 35.06489 39.67996 52.21659 61.64550 68.05233 62.98504 56.40064 56.33229 49.25920 39.34146 34.01926 21.82246 27.04213 46.50654 51.29859 62.85362 64.38131 70.80778 69.70763 64.66153 49.71045 42.46447 29.40013 32.48557 41.17236 55.50314 55.65940 49.44150 35.08253 36.16629 47.69475 57.68177 55.25340 45.98254 30.32444 19.54845 29.17334 36.19470 44.85881 59.28582 64.52175 61.56668 46.08199 34.93197 45.48037 55.50331 58.74711 65.94509 68.75380 47.17094 33.06400 28.49137 22.03505 31.31667 32.73290 49.13410 51.61324 41.91704 22.81059 20.85822 30.18883 40.94497 52.99233 60.85807 60.33993 50.20207 45.18319 30.86102 33.44639 51.45303 56.72821 39.33486 32.62522 24.58531 30.60607 46.09138 55.75726 65.57358 72.58121 69.87305 61.27965 37.88119 49.49259 60.31339 63.13184 66.88420 60.33779 69.89140 76.64891 71.50024 65.29242 60.17330 46.64960 40.70914 32.76432 29.01186 22.50273 10.00000 10.00000
