576.84603 580.41704 501.93888 330.58086 301.21326 284.95880 294.85076 210.27250 213.73255 148.53307 150.41363 96.22044 60.94500 76.36579 62.96059 21.80445 21.62037 68.43951 126.91536 68.62453 181.09198 217.81206 250.53379 230.66003 222.24516 169.01585 92.17365 59.54271 79.63805 56.13010 38.47920 34.90347 12.53203 -11.24238 -22.90609 -35.01477 -42.59875 -48.77565 -56.89135 -73.69142 -65.54775 -61.27378 -64.68325 -67.84075 -52.83316 -51.64228 -49.40572 -47.75016 -48.80319 -56.55245 -53.56196 -61.61960 -50.63368 -64.22656 -64.33135 -65.22298 -76.39507 -77.47998 -80.90917 -77.75678 -62.36889 -69.19019 -62.22268 -70.89550 -65.14320 -77.07746 -78.61561 -85.27865 -92.04948 -94.25726 -96.66238 -99.18846 -103.69261 -109.82297 -96.61593 -100.62578 -104.85220 -100.78866 -107.44786 -105.23927 -123.17210 -127.88125 -129.21791 -149.30971 -140.75957 -142.88426 -155.28858 -153.00669 -151.24267 -158.76291 -171.14121 -293.80742 -343.40047 -458.88059 -448.47952 -500.80977 -625.75248 -705.43200 -902.53577 -1007.25458 -1020.32107 -1072.22894 -1112.51728 -1108.69273 -1099.17991 -1105.05388 -1091.73687 -1075.99690 -1055.64558 -1055.40101 -1054.44912 -1141.49745 -1187.70988 -1309.36197 -1446.41613 -1473.09082 -1532.35886 -1563.92104 -1659.88190 -1749.58567 -1720.07405 -1750.93065 -1730.06911 -1788.78942 -1814.53989 -1869.88285 -1868.67382 -1917.02906 -2007.39405 -2018.47746 -2018.67577 -2043.03537 -2055.55232 -2074.37873 -2073.23874 -2078.06992
677.61338 674.73015 640.17491 349.64792 344.44166 366.99740 366.41568 317.67775 235.96989 218.91952 222.36433 134.14494 133.58459 162.55186 110.25145 43.63242 21.25974 61.08404 95.63518 75.65938 74.53769 149.60210 192.97554 216.95106 216.35724 180.34271 149.75570 106.11947 90.91337 86.80054 68.32056 29.79036 5.43015 -21.05447 -29.24572 -54.17445 -53.24891 -72.37797 -56.08475 -65.66494 -46.61918 -47.73697 -60.77348 -72.02505 -51.09272 -54.50950 -48.61572 -48.41349 -52.36517 -50.81407 -57.68717 -50.49987 -55.42999 -61.82220 -62.62394 -69.23810 -78.43627 -81.27362 -68.86489 -59.11803 -61.47963 -59.71783 -61.08135 -65.38451 -81.51869 -76.94910 -73.34453 -89.11676 -89.62670 -93.99354 -87.72228 -93.85686 -102.98934 -99.70345 -102.95846 -91.56374 -94.66862 -96.11930 -91.96317 -105.78720 -111.72914 -124.04350 -128.86648 -134.00236 -141.21497 -148.40349 -150.33391 -154.90216 -151.22097 -164.81715 -168.22540 -162.40834 -265.87593 -167.31004 -237.44338 -292.16600 -429.73907 -688.10863 -846.91720 -849.16784 -936.72171 -979.11384 -1022.72131 -1066.33994 -1090.56294 -1084.07320 -1088.98728 -1070.85336 -1066.40925 -1049.78939 -1059.90714 -1110.31283 -1175.75976 -1223.66962 -1369.82720 -1433.68144 -1446.78653 -1502.93401 -1550.16627 -1614.05426 -1621.53641 -1643.35676 -1661.20921 -1712.25466 -1714.54362 -1777.11896 -1826.17378 -1833.74054 -1937.01075 -1977.21537 -2004.47573 -2034.42044 -2011.26059 -2034.40548 -2041.92360 -2042.16521
644.19524 654.01361 526.83481 406.49668 358.43992 401.71216 461.52219 446.70718 337.58789 291.15005 227.78058 208.68756 176.32180 161.12589 122.38316 35.54143 0.70807 19.50786 38.35871 41.66425 42.94316 147.45869 170.89936 192.04831 191.00462 208.94941 173.26527 140.83886 133.47218 131.71920 76.16235 43.96168 1.49249 -13.42128 -39.93827 -66.68454 -73.51006 -52.20695 -51.11216 -38.47025 -42.15082 -37.51883 -48.32703 -52.94981 -50.97426 -46.45701 -47.54384 -41.21814 -48.67867 -49.01863 -47.69072 -50.57895 -57.12032 -58.27201 -55.87857 -60.79782 -70.10642 -64.72175 -57.89898 -63.13275 -61.17445 -53.10513 -64.20531 -71.03769 -68.39850 -81.76015 -87.13688 -88.55368 -90.24309 -93.15490 -89.78873 -94.56529 -89.18230 -95.98277 -98.74056 -94.19532 -100.97554 -95.75307 -107.89376 -105.49285 -113.72117 -124.62872 -131.17692 -139.57283 -144.21980 -138.07808 -140.13149 -150.39766 -158.49301 -154.31245 -156.89545 -158.63318 -162.36746 -166.30139 -173.72525 -165.81272 -367.47112 -518.30158 -681.84428 -818.24398 -802.41666 -808.42724 -965.71983 -1022.42433 -1042.60889 -1068.32519 -1060.93886 -1072.51823 -1062.00078 -1052.67525 -1070.05087 -1126.18621 -1178.38997 -1196.46007 -1273.83033 -1374.44819 -1382.72997 -1392.32154 -1404.12512 -1391.59215 -1475.40749 -1504.17330 -1547.27722 -1601.79721 -1649.68147 -1714.02660 -1735.32526 -1803.91623 -1853.18415 -1903.23299 -1936.02810 -1949.12332 -1974.51706 -2011.54746 -2003.99655 -2002.32904
677.99470 671.54230 529.08936 381.80692 420.50919 490.53514 522.65548 524.03331 427.18184 378.82852 293.54367 259.02450 216.34665 147.48497 137.67192 80.75947 33.22527 9.08141 -1.69673 0.00499 0.72818 62.25637 133.19130 155.66471 198.86325 192.19778 197.87477 198.43010 185.38189 162.32448 110.06955 26.09402 6.97213 -6.33171 -36.93204 -61.55977 -69.19395 -46.59608 -38.41713 -20.97185 -25.51085 -28.71943 -41.32727 -42.51852 -43.57244 -35.83670 -31.26307 -38.28551 -47.33134 -34.98901 -41.03164 -42.90622 -44.29318 -60.60640 -56.34017 -59.91198 -63.42591 -60.03982 -57.50974 -55.09755 -52.71597 -65.93772 -64.61674 -71.50374 -70.38108 -76.40198 -78.69339 -77.49609 -91.73853 -93.11744 -89.53039 -90.49561 -87.09640 -91.34173 -99.22166 -104.00611 -98.77630 -94.69070 -93.59929 -110.57309 -115.55506 -116.20332 -124.99134 -139.02723 -127.43606 -135.84092 -145.80821 -141.72430 -148.10166 -150.75203 -150.19965 -156.53082 -152.15858 -166.51131 -164.40498 -170.05821 -218.15756 -266.55857 -436.94425 -525.97598 -693.58906 -761.84182 -751.84541 -955.53875 -1016.26266 -1010.33771 -1062.47447 -1057.43315 -1059.98768 -1069.21466 -1062.25506 -1118.20818 -1136.39371 -1212.18095 -1261.83025 -1313.48385 -1309.09969 -1346.63286 -1325.90312 -1368.97731 -1388.32405 -1422.55596 -1496.49598 -1487.66236 -1511.21226 -1598.47547 -1693.15079 -1727.75014 -1768.21198 -1774.72916 -1832.29718 -1886.54759 -1906.27947 -1951.02961 -1950.90561 -1955.57865
831.82916 816.95258 642.90368 434.38270 520.84466 564.18504 553.33846 578.38039 523.51917 397.87465 341.26650 323.48444 263.48375 182.72532 136.23265 132.43726 85.52915 68.52033 26.01471 7.34388 -11.83452 32.59328 68.53903 130.35938 143.06691 181.57164 179.79741 202.41264 198.95734 159.37426 129.89732 59.77489 16.63396 -9.26127 -39.56836 -56.05797 -58.18869 -56.13628 -42.86938 -28.88803 -21.34726 -10.67017 -25.34476 -33.61640 -33.91410 -27.16649 -34.54337 -46.39242 -34.30857 -35.90059 -31.91850 -46.31054 -41.11890 -55.80499 -55.24725 -58.29832 -65.14186 -72.67705 -64.68161 -61.92929 -59.09356 -65.23396 -62.83449 -65.83392 -64.61498 -73.83647 -77.42728 -84.15310 -83.17019 -83.71009 -84.74585 -94.27738 -90.60434 -97.64795 -95.47716 -95.93654 -100.34355 -109.34353 -96.04879 -105.99138 -114.83189 -115.61265 -119.81127 -127.74960 -128.61871 -144.03894 -149.55305 -148.27069 -139.37645 -141.78854 -142.33861 -147.25487 -156.06932 -161.02561 -156.06146 -160.54247 -195.18613 -205.04876 -229.82946 -320.48815 -367.29059 -441.04945 -626.94567 -753.42190 -922.00031 -932.58376 -996.01710 -1014.78594 -1041.43377 -1053.45504 -1071.22941 -1107.73274 -1151.52671 -1206.72377 -1261.30733 -1270.99700 -1300.73791 -1279.08674 -1301.37268 -1307.00584 -1352.09616 -1356.28645 -1382.14482 -1403.50187 -1473.33609 -1460.71366 -1503.25512 -1548.13098 -1613.87368 -1717.14512 -1788.96940 -1833.05787 -1867.91329 -1854.04697 -1891.25873 -1893.48925
819.52613 820.89528 646.19664 525.38847 501.27699 610.31413 620.16139 643.92413 562.64836 463.77086 372.59260 359.17328 301.47235 193.25609 143.53945 133.27597 119.01621 96.85266 68.69360 21.65744 -7.37951 6.88001 1.20651 66.26905 112.90078 134.60695 150.89846 157.26560 180.00169 144.37402 118.54405 79.42471 -4.30352 -19.89087 -47.13957 -50.78094 -63.90127 -61.28378 -39.99945 -21.10962 -2.33605 -9.93453 -19.94395 -29.70340 -27.19343 -22.29627 -31.16149 -33.07232 -21.51959 -37.57362 -39.23635 -49.35390 -55.17444 -60.47159 -62.30157 -63.60546 -68.28972 -64.12103 -63.35043 -58.47584 -56.99439 -64.14958 -64.03091 -64.55549 -79.96725 -71.59316 -69.31217 -81.32181 -80.13251 -78.31390 -86.95485 -95.43923 -94.14176 -98.24568 -92.53506 -99.78042 -105.73387 -104.57462 -106.11666 -115.80713 -113.81057 -113.54922 -120.66483 -128.39553 -125.56458 -140.39748 -138.89659 -138.07134 -141.27609 -141.43553 -138.68365 -135.87658 -148.40872 -147.27968 -147.53673 -158.86240 -158.09237 -168.27143 -183.08144 -196.60888 -206.14553 -217.14144 -318.17349 -669.24402 -893.27788 -884.26326 -936.13727 -973.42404 -1036.21239 -1045.84031 -1069.46448 -1111.07539 -1142.87659 -1200.60172 -1230.99145 -1243.73563 -1259.77078 -1228.86059 -1216.16894 -1245.76152 -1254.41969 -1260.91053 -1267.97335 -1312.26170 -1329.53031 -1366.13932 -1443.47859 -1474.88665 -1583.75458 -1601.93136 -1683.80802 -1796.32714 -1805.11873 -1844.93015 -1830.66737 -1838.76862
816.79560 808.58509 912.81277 531.36270 607.61002 659.57154 744.22154 754.95107 688.45405 480.86769 382.19066 336.24606 287.45571 187.31622 116.38466 94.85664 111.84284 108.82328 99.61334 62.83116 40.21408 -0.20081 -6.75318 15.83784 69.38756 80.82428 104.81971 145.24257 119.28778 114.96901 70.61809 79.50971 -7.26276 -54.63415 -56.37398 -67.87553 -56.79514 -57.49673 -24.01710 -16.56080 -2.59246 -1.02264 -11.52810 -20.52233 -24.93812 -25.53657 -29.29279 -32.73235 -33.10733 -41.66792 -46.05755 -58.82126 -57.05747 -68.47198 -69.42911 -58.46446 -61.52175 -49.26229 -65.76380 -49.74925 -58.70570 -68.37945 -64.43984 -67.40565 -76.53360 -73.33505 -81.21183 -82.40444 -84.93662 -80.01699 -85.41233 -98.08109 -101.73766 -95.46181 -104.09547 -102.21893 -104.98679 -101.39878 -111.67305 -106.37635 -110.91217 -118.71388 -130.27114 -126.12525 -124.13606 -125.24980 -134.74669 -132.24174 -134.73164 -134.19147 -137.72856 -132.43527 -140.80130 -142.00737 -147.31100 -153.40775 -154.21433 -155.86821 -163.47819 -178.42313 -183.60156 -192.28603 -197.10935 -409.40147 -650.37931 -784.33828 -826.39066 -891.14856 -1024.53427 -1048.19414 -1069.57219 -1089.83019 -1139.14158 -1187.56951 -1224.42375 -1220.57425 -1197.37790 -1156.47247 -1158.30763 -1162.21398 -1177.33384 -1165.09350 -1157.76540 -1222.25589 -1209.27877 -1247.14951 -1325.00110 -1373.89547 -1478.18458 -1518.96489 -1578.04230 -1646.14056 -1705.54031 -1743.54559 -1761.21325 -1761.01558
1151.40126 1161.76394 896.74683 724.09473 683.44209 773.03008 827.54035 810.61238 759.94083 612.06695 429.36334 383.97343 226.58307 139.04982 106.25416 64.11851 71.91889 83.08977 91.30118 75.95859 33.22594 2.20251 1.63767 3.25318 13.99212 64.27597 90.63020 102.99895 58.15083 72.89994 28.85553 -22.19839 -41.76092 -66.94896 -67.63256 -60.97820 -58.65770 -32.96967 -13.69469 -0.27222 -2.67842 -8.70661 -11.18394 -21.99108 -18.38918 -21.63823 -24.57692 -32.62024 -38.49262 -42.43977 -47.27374 -58.58243 -62.08691 -54.31488 -52.02527 -61.57839 -54.55078 -48.51178 -55.89090 -54.07467 -59.90321 -64.94030 -60.37527 -73.85143 -78.68368 -80.02412 -83.49699 -85.49132 -84.40754 -86.96426 -92.39809 -91.82786 -96.86210 -102.05535 -106.76107 -104.47202 -110.50761 -113.95193 -102.66257 -113.58175 -118.05900 -125.77776 -117.11525 -124.45057 -132.05058 -134.61513 -124.82442 -137.97588 -131.16515 -132.67729 -128.69923 -133.47467 -139.01597 -147.72884 -146.10139 -140.32603 -143.32015 -156.65530 -151.29686 -154.47376 -150.77455 -176.51115 -187.87687 -188.96238 -438.21096 -550.26189 -738.14078 -860.26528 -980.02514 -1032.23876 -1063.29974 -1084.93056 -1120.47008 -1168.09597 -1198.53952 -1206.74189 -1170.57731 -1144.84115 -1118.08457 -1081.97481 -1088.38800 -1113.81718 -1071.74203 -1096.79771 -1162.45756 -1170.00301 -1175.56218 -1283.46100 -1346.30091 -1404.93746 -1486.39502 -1528.79921 -1608.82529 -1679.48472 -1681.88604 -1678.46424
1321.93249 1318.30822 1156.75954 847.63995 823.29405 847.55239 905.46285 893.85504 810.30989 637.91662 525.62860 371.76788 207.10632 138.49444 92.10815 19.44736 33.23526 46.83032 37.89445 14.83797 17.68083 2.14370 -15.35683 -19.78989 5.36807 26.97487 44.48564 46.35462 45.61595 -9.15467 -14.17768 -30.49289 -59.91736 -48.92015 -54.66411 -49.42281 -38.36687 -14.28035 7.55314 0.76758 5.04027 0.45586 -4.00941 -5.93846 -15.39732 -26.13339 -17.67773 -22.07906 -35.43020 -46.64651 -54.84352 -54.88134 -55.29640 -44.38637 -41.57578 -47.72227 -46.83967 -46.94013 -45.45889 -65.45175 -64.30008 -68.12130 -75.40691 -76.99768 -81.09853 -82.07534 -80.57119 -87.23756 -90.93321 -85.18527 -96.30181 -102.52335 -97.91981 -102.92594 -103.74067 -113.04516 -111.13593 -110.33492 -120.87703 -112.70656 -117.80174 -117.34987 -122.33203 -125.31616 -124.40286 -131.29829 -127.37985 -129.42547 -126.17086 -136.08995 -136.06073 -141.60639 -137.81597 -132.84896 -136.02264 -139.91190 -144.96457 -145.36323 -146.47990 -154.14444 -148.97445 -158.12006 -168.37888 -187.09413 -293.59930 -406.38057 -715.65458 -840.34466 -973.12477 -1018.58013 -1057.64694 -1087.92968 -1128.67740 -1140.17050 -1193.52064 -1176.16920 -1151.13436 -1108.33423 -1053.33054 -1042.86597 -1023.59995 -1018.12683 -1032.99856 -1048.31073 -1049.28628 -1015.46814 -1019.32362 -1109.44827 -1194.14443 -1248.05181 -1348.24363 -1474.28201 -1459.99969 -1599.27411 -1592.42176 -1592.05312
1554.07666 1555.55881 1309.64362 951.85959 938.07001 972.32677 951.11983 894.46931 776.47443 732.83843 533.87665 367.01001 222.03923 127.18821 103.72868 67.37698 28.64189 17.89162 -1.10411 2.09480 -3.92139 -38.24315 -33.36555 -18.76322 -1.43281 4.45702 12.64807 30.92359 1.16571 -27.39708 -30.37585 -52.19321 -54.47778 -42.09387 -35.22107 -29.42775 -17.62351 2.31558 40.06933 43.59811 12.93117 11.38039 2.62111 -5.71319 -8.19975 -14.08847 -19.64337 -17.89372 -24.03026 -46.08688 -54.32658 -55.52628 -53.64766 -39.59528 -34.73301 -36.86443 -44.39154 -44.73902 -56.86493 -62.48531 -67.54199 -72.71694 -67.70461 -78.64396 -76.73722 -76.13159 -88.87027 -79.46265 -82.26010 -86.05849 -93.45115 -99.39639 -103.85931 -105.57344 -110.05658 -107.27034 -111.69219 -117.28366 -108.04465 -115.76110 -117.88006 -126.63224 -112.16462 -118.17522 -132.70198 -126.30912 -129.11005 -132.65850 -121.79103 -130.35832 -132.45737 -134.00115 -127.46542 -136.96460 -136.27134 -139.79796 -132.57853 -137.12703 -142.67620 -149.85032 -150.49486 -150.03010 -162.03770 -175.00476 -263.24017 -342.99346 -621.08927 -733.48691 -958.17152 -975.27571 -1027.92284 -1069.60708 -1125.93323 -1116.15730 -1129.95079 -1130.15103 -1101.53485 -1061.26455 -1043.35828 -1028.94112 -1029.51291 -990.91098 -972.28549 -966.79530 -968.66745 -989.96720 -1001.74157 -1000.17246 -1036.47887 -1146.21054 -1276.82307 -1336.02328 -1406.74812 -1437.64912 -1504.46370 -1518.22495
1502.92356 1504.89014 1241.32405 1133.24512 1042.98884 1030.59296 972.14144 895.28689 843.26432 634.38459 500.84918 327.53888 292.49610 169.84376 100.85861 91.23024 51.83468 25.92942 -10.72015 -16.85155 -27.03959 -29.26505 -31.97669 -39.61132 -31.04196 -19.07751 -1.35519 -8.88780 -12.08540 -43.34073 -44.33592 -38.89144 -39.47916 -29.55335 -32.12229 32.91427 28.54967 55.10252 64.14772 58.03249 36.28271 19.44518 3.99264 2.76169 -3.52142 -20.79501 -22.85805 -37.13077 -38.53609 -40.80892 -49.13284 -51.05135 -48.86924 -43.59670 -34.19448 -38.92331 -37.75371 -47.97926 -56.99079 -62.44732 -68.20418 -68.40854 -69.23431 -73.84456 -79.04250 -80.76152 -84.13667 -90.85217 -86.87491 -94.60384 -94.70609 -86.75541 -101.49518 -101.19503 -106.17683 -101.27386 -107.70902 -115.36248 -113.11690 -116.44378 -114.46467 -117.88626 -123.67240 -127.26759 -118.69002 -123.33522 -131.81957 -126.25250 -130.76898 -129.16205 -125.81883 -128.07939 -124.55105 -131.24146 -133.09884 -134.91687 -146.25989 -139.93203 -145.20209 -146.09456 -150.34700 -146.20837 -160.88787 -162.66313 -177.24385 -231.65019 -430.03827 -552.71980 -736.04973 -930.93839 -927.39942 -1040.48625 -1065.63570 -1065.76033 -1095.65332 -1056.88782 -1070.89261 -1049.02146 -1023.57190 -990.09857 -982.10116 -977.70031 -932.77487 -937.46716 -891.64961 -910.97282 -913.12468 -923.22837 -1005.72138 -1022.28464 -1123.59686 -1320.34219 -1331.20452 -1428.94529 -1433.52540 -1444.17180
1260.18174 1267.21905 1323.01472 960.39440 992.02246 909.34904 788.33915 776.77718 766.39600 704.80045 509.52685 471.34421 353.41779 301.69638 210.08708 166.31176 114.08466 45.33622 29.02937 -0.05832 -9.83800 -18.88328 -24.30349 -33.71627 -51.34542 -30.29779 -22.93395 -31.28899 -29.55396 -45.85049 -56.59507 -42.93278 -11.06430 16.48869 53.82888 70.04039 45.77909 78.26584 106.36517 90.19553 54.51338 10.89094 9.88262 -3.23325 -10.26333 -25.24373 -38.62138 -31.86310 -38.57104 -43.88163 -46.51624 -43.21566 -49.51759 -23.72071 -32.39293 -39.60768 -42.20849 -43.20738 -58.48033 -51.38545 -65.43695 -75.18265 -67.31919 -68.20546 -69.49308 -77.01703 -81.86720 -87.53938 -91.92488 -91.45599 -91.40148 -99.12945 -90.47239 -94.11154 -105.21255 -108.37488 -104.97879 -113.39835 -106.70685 -107.65325 -108.27486 -123.15946 -122.82583 -124.44873 -118.70213 -111.14540 -129.56665 -124.01541 -127.11896 -127.68700 -125.16167 -116.22949 -129.90754 -138.78482 -130.92152 -139.03077 -145.43295 -140.97259 -147.15255 -147.89081 -144.15330 -148.74525 -156.03803 -165.21554 -179.74348 -222.36882 -254.16274 -301.59881 -665.77049 -763.39891 -820.02455 -1005.23887 -1030.88137 -1031.27016 -1034.70235 -1047.66904 -1045.00859 -1019.92719 -1003.13929 -983.67573 -933.47286 -900.98956 -869.14824 -875.74306 -851.44296 -837.32169 -846.96320 -842.14080 -912.72474 -952.39629 -1016.73242 -1135.64152 -1239.74721 -1312.06334 -1364.84592 -1359.60229
1223.48219 1220.36798 1048.66900 873.44061 809.28027 763.37544 604.05843 692.79626 777.02184 807.22049 691.09858 525.61402 497.28340 372.16439 332.48043 287.54870 253.61850 156.29219 81.16438 34.05031 1.22291 12.85835 10.74804 -33.83676 -38.51492 -42.37139 -44.42370 -42.97190 -50.85767 -49.35653 -54.93328 -24.84543 -0.48358 41.10060 65.18780 113.44617 103.06052 104.37571 106.46248 104.01275 39.88666 13.91829 9.03222 -5.65293 -17.45163 -28.25711 -38.10393 -42.81329 -37.66515 -33.68207 -37.03020 -39.87933 -28.72904 -37.34668 -28.21386 -43.07300 -40.19667 -49.47903 -46.81905 -56.79715 -57.78311 -59.33394 -64.86851 -70.99154 -69.79742 -74.89652 -73.46581 -81.83562 -91.52796 -89.90447 -87.03059 -87.32916 -83.55412 -103.57097 -93.63804 -96.39455 -99.80247 -108.25723 -117.95437 -115.96800 -114.08940 -118.87264 -116.75814 -122.40856 -119.94735 -114.35515 -128.19270 -120.22796 -116.07214 -125.86843 -123.99714 -126.78051 -135.16920 -126.04474 -134.77130 -137.62223 -137.25966 -145.85974 -140.12005 -142.58962 -141.93784 -154.74418 -152.41032 -164.37939 -174.39436 -196.35683 -257.17158 -292.21450 -608.50920 -703.81978 -744.80112 -794.86994 -964.57600 -1012.35439 -1017.28538 -1029.99309 -1026.71315 -1002.99060 -1007.81592 -938.57849 -900.34750 -884.60991 -868.85575 -814.54768 -808.06461 -804.10247 -796.60910 -829.00095 -867.84269 -886.89946 -905.75467 -1035.72167 -1152.93434 -1268.95483 -1299.66727 -1299.84336
1192.95113 1195.41512 982.81175 786.63941 637.81172 538.87595 578.08409 617.60692 706.32819 737.65390 724.56320 601.18491 526.20232 412.08722 351.44734 356.96213 323.23154 271.35954 172.38712 82.42369 39.67254 46.37609 32.37409 14.23811 -38.65520 -33.96196 -41.48222 -48.36131 -46.80347 -45.08287 -50.23256 -14.50070 16.51244 52.16936 101.85236 114.14867 146.67581 121.85466 111.60035 64.86638 2.93754 0.69601 5.26713 -12.04230 -24.38699 -34.76961 -38.66551 -36.65282 -30.37278 -24.50603 -24.16035 -36.47404 -33.58469 -32.35590 -36.55373 -48.19907 -52.80853 -52.12895 -57.69424 -54.58681 -58.51390 -61.25349 -62.78170 -63.04160 -71.75035 -72.44034 -82.36921 -84.73021 -83.80837 -92.44158 -85.13261 -85.33079 -89.10172 -87.26890 -95.94316 -102.66585 -100.54624 -102.31675 -106.32115 -105.21203 -107.23400 -112.67956 -116.93250 -119.16768 -119.08099 -122.85857 -113.65940 -126.80851 -125.08201 -125.88421 -125.45270 -124.10505 -132.03926 -129.37139 -135.56690 -134.29525 -143.58269 -132.85614 -142.53592 -143.44828 -144.30003 -146.08344 -159.31163 -162.53517 -169.12525 -218.78477 -239.05421 -321.82793 -423.66177 -565.81726 -586.82861 -727.90857 -872.18729 -1002.72840 -1012.65897 -1017.51126 -1014.99578 -995.21770 -964.68589 -916.06857 -887.52621 -869.18111 -816.24485 -784.95745 -753.54454 -745.01014 -752.14316 -766.59407 -807.09173 -831.79137 -895.73135 -986.90397 -1045.91075 -1250.39142 -1253.09542 -1251.57894
991.82501 984.91755 1030.37727 634.64518 608.46005 525.17855 482.76578 519.50993 619.63262 665.15712 587.39553 602.92296 580.62799 473.33450 443.22673 388.76872 391.75434 337.85116 208.67626 176.22773 134.91916 113.95023 53.69518 11.95955 -17.33972 -5.04815 -35.34614 -36.63103 -39.00371 -38.62442 -35.48675 -1.69564 36.99459 42.11643 98.21497 130.41283 159.86345 113.82989 88.07380 45.19763 -1.50771 -11.67096 -8.43664 -25.24533 -42.19684 -32.95954 -25.68531 -26.27236 -7.33740 -14.02580 -24.75659 -33.25362 -39.41801 -35.60328 -48.77182 -53.90182 -57.22536 -59.83976 -62.59316 -52.45239 -62.88736 -66.15646 -59.25345 -63.36304 -71.37035 -74.87459 -89.41239 -84.11225 -88.37215 -81.52332 -87.36677 -87.73045 -101.66962 -94.87425 -86.69935 -102.04558 -101.21017 -111.85636 -104.86056 -107.37423 -114.75658 -105.91243 -105.51556 -112.73451 -115.34309 -122.74600 -117.31796 -122.08821 -121.49023 -131.74315 -128.39754 -124.90247 -129.24018 -131.29499 -127.15087 -128.93355 -136.73782 -136.27265 -137.69130 -139.49585 -148.96180 -148.92567 -145.21080 -144.81950 -159.21777 -166.45151 -220.14165 -247.91128 -350.80341 -430.89822 -538.35782 -720.61328 -759.91955 -915.17091 -991.25182 -1000.72077 -1003.56515 -991.71654 -953.91717 -895.97467 -858.05085 -843.46389 -812.77417 -755.52074 -733.92598 -720.63299 -722.55423 -715.57524 -749.68724 -796.42332 -855.84216 -968.51362 -1040.24848 -1141.55584 -1202.59473 -1209.60235
914.46059 906.05323 734.84788 638.93516 556.36733 467.49212 440.35713 492.49979 505.93321 483.78739 487.34937 560.93252 589.37955 521.89088 473.99823 396.49048 397.86394 366.36648 219.51214 155.30792 130.85165 50.50107 30.85584 -21.99288 -0.07723 19.55605 -1.03639 -4.18065 -12.64322 -14.55128 -13.09792 -7.64144 20.03004 50.60593 93.00951 129.94733 142.31307 105.94793 68.53513 9.48564 -18.99972 -19.95288 -32.92045 -33.44399 -33.86908 -17.78178 -1.86834 0.89102 3.44065 -5.00736 -7.28629 -27.11273 -41.82304 -41.57612 -54.05147 -50.21359 -56.70439 -50.42509 -58.19013 -64.02003 -65.32842 -59.19473 -70.77451 -67.95399 -76.67366 -87.10961 -93.12839 -92.40201 -90.04861 -84.30595 -91.74901 -90.26788 -92.91100 -99.42723 -86.46336 -100.06505 -96.61602 -106.31113 -110.00998 -101.54735 -107.95102 -105.21403 -112.78644 -106.09523 -110.49984 -114.61120 -116.96084 -117.08825 -123.65096 -118.26534 -123.65921 -124.64154 -133.28021 -126.38456 -127.00755 -123.02091 -132.94815 -129.90688 -144.82017 -134.93432 -143.44551 -145.39990 -148.49989 -149.23753 -161.26028 -164.73675 -174.81241 -182.07184 -193.16044 -264.81230 -501.34690 -578.01589 -757.02767 -883.78230 -999.02124 -1002.04953 -992.96094 -973.23957 -926.10141 -880.28857 -834.46752 -816.96686 -758.05008 -721.58834 -711.56908 -678.58713 -696.26444 -711.62330 -754.29726 -786.22655 -799.54119 -931.23938 -989.37055 -1115.24944 -1173.32835 -1170.65118
861.33752 870.74924 734.82695 583.99842 480.25645 393.56865 435.76352 482.72179 469.64728 444.67889 401.26302 484.24392 526.99380 573.17788 547.30111 465.43739 388.80665 325.62042 191.92560 66.48266 54.91456 16.62548 1.08892 3.88912 34.76923 65.01971 26.26621 -3.37539 6.87674 17.12452 -3.18862 -0.76480 21.43148 48.08934 91.71451 134.93223 154.35454 118.96586 62.26717 4.43725 -4.96000 -20.37295 -32.10408 -35.89979 -16.93883 -6.42322 4.82301 26.81769 23.90325 17.25791 -0.76276 -18.84791 -25.96185 -31.16424 -47.76322 -48.04559 -38.22323 -52.97448 -56.50032 -66.18782 -64.36512 -75.30340 -77.13370 -65.85476 -81.70368 -84.50017 -80.47779 -81.90386 -77.78291 -81.80694 -89.70456 -93.09351 -96.27901 -100.32123 -96.52537 -96.84750 -102.68421 -102.18575 -111.08006 -106.60878 -114.02992 -109.63903 -113.82690 -110.51012 -108.60481 -116.79125 -110.41318 -122.77549 -116.05796 -123.83475 -131.42656 -118.82247 -131.11637 -123.38686 -127.68500 -127.38610 -134.03515 -142.43429 -139.33707 -136.13713 -139.09899 -144.44456 -149.34250 -146.41112 -161.21385 -162.18102 -162.78886 -171.39266 -185.32415 -194.27786 -364.27100 -633.65594 -777.44864 -856.39167 -981.95723 -992.89160 -979.38526 -956.58616 -889.81267 -843.16059 -805.53680 -791.85387 -729.60702 -707.21105 -668.17922 -669.64448 -666.80918 -680.31235 -712.29873 -751.53948 -793.99816 -869.50473 -913.26038 -1125.07123 -1124.64041 -1121.70775
848.46640 846.29844 720.94469 590.26264 477.46425 381.60801 375.03470 395.19591 407.78970 381.73848 381.54067 394.89871 540.31880 566.75187 553.01561 460.16810 437.14848 350.98682 196.06838 26.16489 38.39847 32.95584 35.45176 30.48989 53.85922 44.78622 42.89148 16.99059 40.01701 54.82328 64.09517 49.00710 30.07850 79.82939 117.05299 138.24585 142.93323 113.92982 65.72943 27.45361 -9.46389 -14.30386 -19.69978 -17.38335 2.46359 4.53753 30.81291 49.02035 51.53097 39.11348 15.23512 -11.13723 -12.43332 -35.38981 -37.33807 -39.97080 -37.76129 -52.06963 -49.36853 -60.12453 -55.92267 -75.00073 -69.78495 -73.52896 -80.66346 -86.59347 -76.56445 -70.44150 -73.17616 -84.91786 -82.08060 -89.82790 -97.53151 -96.45140 -99.74549 -106.52501 -108.64945 -114.85968 -104.34807 -111.13544 -116.33382 -111.36957 -123.41479 -107.41443 -117.84746 -114.32611 -115.55081 -128.58973 -119.14366 -118.67120 -128.90270 -123.60682 -125.49311 -129.63938 -124.48703 -123.83599 -128.84470 -134.84459 -136.93602 -137.28892 -140.85614 -145.80534 -150.99981 -145.71104 -147.22600 -151.78673 -158.21785 -163.99067 -178.20443 -190.89259 -409.46601 -732.04682 -780.15454 -881.62713 -957.76954 -964.24600 -954.65273 -925.46495 -880.31847 -805.49444 -778.31327 -733.97417 -680.46954 -629.56869 -640.81329 -640.24025 -637.65920 -646.32461 -680.87269 -696.60450 -754.73498 -797.68333 -880.52801 -976.56404 -1068.97425 -1072.42363
785.99300 778.46361 683.74469 582.39541 530.13341 402.62711 311.11403 307.24087 273.04934 302.14438 363.78649 424.36730 506.83288 561.79275 588.30125 477.28146 385.99182 277.44166 164.14055 96.61426 92.76486 71.22744 116.42911 105.20745 125.74392 72.79787 53.36916 24.61411 48.54763 91.25580 103.61675 109.93052 80.45910 100.32446 146.44209 176.46834 144.17413 101.65785 77.37049 16.58461 -5.58416 -3.34523 7.41982 12.97585 16.61289 40.42067 54.47590 88.78500 83.92858 55.13166 33.99429 -6.35105 -21.70056 -6.69276 -30.49897 -35.42325 -30.85391 -45.73832 -55.57814 -55.67831 -56.77248 -63.60292 -60.47845 -63.33294 -65.77972 -62.75654 -70.20459 -65.80600 -73.48603 -74.05033 -83.00140 -84.79642 -89.37396 -88.83582 -105.54147 -96.65426 -105.18487 -110.01625 -109.87257 -110.99424 -114.00318 -109.35995 -116.50684 -120.33345 -110.71092 -116.01310 -119.76564 -123.43389 -115.75165 -114.16617 -122.24351 -120.77108 -125.31860 -121.53761 -126.86949 -134.50920 -129.10297 -135.22285 -132.29101 -145.06444 -134.96817 -137.73737 -142.40413 -151.55568 -151.82848 -156.49728 -161.43476 -153.30301 -178.74100 -188.92105 -356.64737 -625.00833 -781.80415 -913.65019 -929.33434 -959.43644 -904.01580 -843.75471 -825.78838 -791.82414 -729.01261 -697.84765 -636.76499 -622.29874 -586.65773 -607.01435 -599.84939 -634.04048 -659.01399 -699.51007 -698.35286 -748.84243 -834.78556 -966.17113 -1002.94120 -995.42829
706.32299 700.61224 662.60920 560.17849 533.41388 417.12810 312.74056 289.72187 255.26604 296.83896 372.31171 464.71932 492.65387 558.06127 602.44971 510.69494 391.38063 275.66976 265.29357 183.63231 190.83631 161.26881 146.72999 181.23785 158.95008 132.10239 89.26950 74.24449 66.87254 99.63811 137.15513 125.87458 125.63882 145.36466 204.73239 197.23377 172.83473 124.00785 92.47618 42.96978 16.12053 20.42023 19.47041 52.83596 67.23112 59.16680 89.86916 108.64986 135.15956 83.04224 41.61222 -2.40191 -10.21648 -15.44289 -26.56332 -24.55039 -36.34785 -41.81205 -48.71944 -58.40708 -54.35519 -57.81412 -61.25907 -60.32852 -50.69321 -57.81265 -63.39248 -66.85906 -65.41275 -68.33637 -69.63488 -87.16413 -86.09011 -88.16067 -90.73149 -96.80565 -95.06781 -104.44453 -104.78123 -111.52188 -119.86482 -113.46189 -108.66862 -114.90974 -117.55932 -117.29622 -118.06895 -113.69570 -118.10559 -117.69166 -124.93926 -127.56508 -125.22688 -125.45774 -118.56699 -124.96732 -136.55189 -131.10202 -136.93016 -136.50325 -136.53008 -141.00661 -147.90600 -144.38315 -155.97212 -148.67541 -155.49761 -164.02343 -180.51548 -180.51575 -350.89951 -583.38525 -742.65687 -841.89398 -910.66785 -908.56266 -877.39609 -825.97091 -809.92914 -737.13120 -684.28706 -625.77443 -611.00410 -584.27451 -573.98780 -550.67452 -561.34118 -585.21964 -582.07810 -624.75930 -646.30347 -713.63845 -718.96833 -924.36802 -925.76577 -926.38740
653.22831 643.65571 618.59781 518.62367 448.70088 424.39303 359.76905 260.83307 244.81841 306.35902 354.22259 447.81467 528.49143 589.87803 596.69135 569.32476 434.94430 332.61377 264.99441 251.82471 231.25458 252.45655 230.14353 244.50288 248.37116 177.08199 159.61280 101.72033 92.30235 120.07533 150.72242 188.30716 192.02960 219.63468 235.21608 222.02183 176.51332 153.79884 109.45782 86.23928 60.32674 24.43506 27.94453 71.08277 115.07608 119.70589 145.46334 152.20376 144.67733 127.79489 34.43115 -14.83784 -2.61411 -7.08263 -18.33452 -23.41047 -31.74097 -31.70150 -38.09417 -53.76631 -60.57008 -61.73100 -65.76870 -59.23267 -54.77036 -65.22726 -59.30883 -68.98960 -63.82000 -65.57364 -65.00579 -75.09259 -89.76246 -87.11263 -85.92781 -93.93580 -105.26391 -109.18794 -112.62609 -114.44111 -108.95599 -106.64284 -110.88448 -114.72454 -108.32385 -119.61048 -125.44406 -117.93470 -121.86607 -116.93337 -124.22393 -122.21648 -126.57179 -128.16945 -125.40277 -132.57560 -127.02871 -133.91008 -132.20937 -134.28319 -139.20557 -146.92406 -146.65537 -145.28017 -152.81622 -156.78110 -155.39596 -162.36872 -170.52753 -185.61104 -412.56716 -569.58687 -759.08350 -806.90918 -860.04310 -881.12980 -839.18920 -822.66709 -745.45440 -709.85925 -624.00504 -589.84404 -544.65401 -515.76530 -518.25672 -509.04732 -510.90329 -536.63797 -510.23131 -558.07384 -575.27089 -644.37395 -711.37013 -788.71393 -853.50585 -851.76594
563.95831 567.89002 570.73170 469.47108 415.56728 367.74279 293.88282 246.69320 217.17284 299.27368 365.90129 451.53034 488.72655 554.47040 575.90740 547.88765 490.34305 429.51038 369.06377 319.41938 331.02618 342.43700 299.81207 299.85779 304.43722 263.54260 197.72339 112.61101 107.45990 142.57761 193.45608 246.42566 247.31511 257.58378 277.60897 230.34812 199.05835 160.23727 164.41915 125.88398 99.02674 70.18082 66.77512 132.94257 156.30664 146.67930 171.54562 178.63927 152.46289 86.35530 16.83525 6.61523 0.12508 -21.39000 -29.45748 -29.95256 -29.69753 -40.20200 -47.40873 -55.09696 -63.65728 -71.75460 -87.44239 -75.56905 -75.40850 -67.54122 -60.38197 -62.92657 -64.58981 -69.37557 -68.08453 -85.56779 -80.13829 -87.59937 -97.82623 -100.03346 -103.71267 -109.74239 -108.32565 -105.04172 -103.60534 -108.73708 -104.53143 -104.32256 -110.36315 -115.90875 -119.23844 -121.43907 -124.71553 -120.52216 -123.58014 -129.60320 -127.77289 -122.93004 -129.85339 -135.24312 -137.24653 -131.25289 -136.00421 -142.58840 -139.01050 -138.53288 -145.68398 -149.74047 -152.09494 -150.75480 -156.90033 -165.86575 -177.34983 -247.80972 -412.17860 -553.87309 -766.64462 -810.23405 -861.65263 -843.52871 -831.51833 -820.90791 -710.91075 -623.29445 -613.67409 -516.85338 -500.73932 -487.28183 -463.60447 -461.14549 -474.24464 -473.35001 -494.52316 -495.32948 -536.12633 -606.39815 -648.21616 -757.00289 -775.63524 -780.94713
488.69984 491.35693 505.51948 367.79692 341.12768 344.87502 272.38390 199.53812 208.61664 273.60580 353.63552 413.29166 458.96586 475.72286 497.46483 507.35168 493.63684 460.48215 426.24565 385.82584 425.88687 430.72588 395.06423 352.00131 301.97844 281.37860 230.27683 194.67969 139.85968 179.64962 252.14969 305.04690 301.88167 283.96152 256.54068 200.80879 170.40230 164.02988 179.68737 170.96612 130.29687 121.99322 134.75062 151.94671 156.66742 147.19018 149.67840 133.68153 115.00193 73.29040 16.36637 -4.90034 -21.90009 -31.66558 -46.43495 -40.31861 -39.36151 -40.17786 -46.99397 -68.75486 -71.63796 -74.42766 -71.96171 -77.10390 -85.80605 -79.44813 -72.73842 -76.31796 -71.34783 -70.20494 -81.01486 -80.34084 -83.89921 -83.79349 -93.43992 -107.80898 -105.02250 -108.50230 -105.44102 -105.56183 -98.37822 -103.00377 -106.95767 -108.29207 -113.17795 -114.92993 -120.49287 -118.70482 -121.80282 -122.14133 -122.40597 -126.65537 -128.63588 -129.21960 -133.51815 -128.29049 -131.48003 -138.47275 -137.37207 -136.94350 -140.01974 -147.78467 -148.55104 -152.31906 -155.42587 -157.73464 -162.00840 -167.28509 -202.83324 -286.47442 -548.59478 -636.80020 -760.45504 -798.29165 -828.15349 -821.80258 -792.53042 -739.11342 -636.77928 -597.85745 -542.26654 -514.80222 -471.37117 -451.73599 -453.85140 -439.31280 -437.21450 -440.14951 -453.71718 -471.29097 -489.12300 -520.10636 -565.06526 -629.27935 -694.13951 -701.83921
455.70163 460.34583 388.50947 314.22726 306.97821 309.27591 251.49864 205.21711 201.41987 234.94127 335.87217 368.85939 395.13204 434.04712 452.74614 457.18152 455.75104 472.53236 508.69678 518.57902 506.28724 462.66877 424.05711 366.84060 315.98797 341.99075 301.10097 270.66740 286.53879 274.81401 357.79521 344.25697 316.36735 285.30555 223.68460 149.22270 138.16365 153.75894 187.12500 170.17480 140.15707 130.95201 132.79790 125.74796 146.27392 135.61569 114.20123 76.62583 63.54108 33.41838 17.05819 -24.07197 -23.23044 -38.26005 -42.43022 -43.12174 -53.47545 -54.68631 -52.28563 -63.18805 -66.10367 -77.34722 -73.25531 -76.79266 -67.63436 -81.04859 -86.03208 -88.14124 -85.66895 -87.91267 -81.21648 -91.14998 -89.47095 -84.05372 -88.62872 -102.50573 -112.17586 -106.11166 -95.89368 -101.08814 -97.92493 -108.44585 -114.30521 -112.74504 -114.14636 -112.47390 -116.45957 -116.99700 -120.70828 -117.10051 -119.48749 -123.52576 -118.35206 -123.17909 -129.82989 -129.92038 -132.78616 -129.77815 -129.40726 -136.54028 -138.93730 -139.46662 -147.38474 -143.01546 -159.87809 -155.35304 -161.67392 -161.65194 -226.68028 -301.88557 -491.07252 -649.97480 -768.63771 -784.67197 -802.42248 -779.90166 -724.68057 -678.96987 -651.48079 -537.16473 -493.18007 -446.31865 -431.37265 -427.62445 -422.29838 -407.89220 -413.87764 -424.31964 -438.85738 -464.87765 -471.15360 -506.53293 -549.30774 -619.30886 -634.68975 -640.48528
453.54534 454.69217 382.45508 297.49574 278.22190 241.31939 206.91986 170.09025 182.26694 221.08342 285.61905 361.52866 370.57858 345.33388 354.85429 370.82458 413.69994 465.28011 514.95640 526.17966 488.56796 411.49799 390.99801 347.29060 333.64130 356.04889 371.86670 343.33379 354.51828 417.79916 384.88628 352.97095 292.56714 280.89725 191.54495 93.81861 75.77250 123.83212 148.16820 139.39566 110.15800 117.95125 74.98302 94.52635 109.16416 111.95963 82.12014 44.02691 6.58822 5.60943 -8.41265 -26.65678 -21.72642 -42.50188 -49.59950 -59.63762 -55.94328 -58.84928 -64.65875 -65.70444 -62.81945 -60.49106 -58.27871 -63.39533 -63.56716 -68.73134 -85.77839 -94.99487 -86.60946 -86.15333 -88.96369 -88.27009 -86.83704 -86.20983 -93.10647 -90.29373 -100.76529 -107.98525 -103.24663 -96.00481 -96.40927 -105.42879 -98.46118 -103.43715 -115.13765 -112.10443 -114.47612 -119.24344 -124.13733 -125.77686 -122.13889 -123.99661 -129.21138 -124.11082 -121.14696 -129.35218 -124.17510 -128.28053 -138.63346 -135.56807 -145.15833 -146.99181 -143.77078 -134.56059 -151.03566 -152.54012 -156.18610 -156.41386 -215.01130 -368.48412 -541.10855 -597.69278 -756.07476 -768.73656 -774.36168 -756.61102 -703.55045 -671.06815 -562.28462 -536.97988 -479.78914 -432.62503 -404.46453 -393.55211 -393.50595 -401.32256 -405.73280 -421.86661 -422.65592 -442.72156 -456.49914 -488.66291 -519.09422 -568.68752 -590.69151 -585.54638
474.04382 472.26833 413.47396 277.69801 265.97516 195.45432 154.03343 152.94128 170.85643 224.73575 250.24342 318.25922 326.65345 312.30917 299.64958 316.47265 419.26083 464.74037 505.36543 512.16086 470.17499 418.26173 385.51247 295.30656 296.44476 340.03240 373.46197 396.92275 405.94441 428.37455 431.58522 358.19775 232.68182 201.83402 127.00764 53.29466 54.82801 47.81377 57.87070 83.21340 70.27029 55.79081 33.99299 46.38686 51.06660 48.02516 28.42951 -14.33429 -30.26001 -36.16695 -36.63042 -32.23270 -24.82668 -31.35408 -46.86207 -53.65646 -53.27463 -60.63207 -67.89635 -63.81341 -54.39264 -49.02210 -51.96051 -59.80821 -56.15151 -72.72944 -77.72386 -88.34068 -76.91254 -77.68957 -74.27832 -81.31412 -91.92614 -88.74432 -92.98999 -99.59714 -99.91745 -101.76677 -99.90176 -89.17197 -105.53937 -104.95124 -102.72291 -98.28863 -105.48231 -115.08699 -112.94870 -120.29832 -118.71573 -120.46436 -128.65606 -126.98219 -124.53383 -124.14773 -126.25978 -126.54796 -126.37216 -132.01876 -127.82536 -133.94472 -134.04745 -136.84496 -138.50130 -141.14547 -151.17003 -150.61976 -148.65772 -164.91955 -246.12565 -325.48426 -494.11970 -622.01111 -681.63550 -720.03290 -649.42468 -718.81919 -588.56932 -586.39468 -501.04697 -453.01798 -440.26572 -388.80967 -373.42292 -363.58475 -358.95281 -364.96750 -381.67562 -404.79519 -415.32275 -440.83562 -445.67886 -472.40692 -500.06824 -527.19743 -563.89610 -556.49132
485.81792 479.38646 417.80548 284.06354 222.05177 194.86450 136.16703 114.53320 159.81250 193.02315 218.25791 250.02922 242.71253 244.30522 256.22296 303.96648 340.04075 448.28371 464.66237 447.93080 413.50153 372.03381 306.15701 266.24758 254.57722 284.42265 357.45231 362.90430 406.41112 426.94529 439.64018 410.73460 324.50367 184.29987 133.64815 64.95472 40.61080 24.23140 37.77931 55.63082 44.09975 15.47278 24.13631 17.43717 36.81240 5.95126 -14.07198 -12.74092 -34.99180 -53.56588 -51.03296 -41.75012 -37.84927 -48.68045 -51.59779 -50.81760 -49.15079 -52.95073 -55.13005 -54.80328 -45.76908 -46.34251 -51.61462 -58.03558 -54.17229 -72.99978 -80.18350 -85.17726 -70.11874 -69.42708 -63.88101 -77.73323 -87.16748 -89.53223 -99.65961 -94.50561 -101.13236 -101.23130 -99.97882 -88.40290 -91.73406 -94.00122 -104.96039 -112.18610 -110.13244 -115.96787 -123.56861 -125.20538 -117.76065 -114.21395 -122.02242 -120.67735 -129.26252 -121.06526 -114.25059 -123.73533 -124.29166 -124.67421 -132.17371 -138.88350 -136.68236 -136.40820 -144.15052 -137.04150 -146.98407 -146.08030 -155.00932 -159.93196 -236.96264 -290.25227 -347.53343 -490.60165 -564.15365 -597.40803 -568.28457 -466.81333 -518.50326 -406.39020 -408.20341 -357.05811 -380.35853 -354.38889 -334.75817 -339.42417 -351.85444 -357.59775 -385.42732 -397.36178 -413.18983 -436.15341 -449.52891 -478.01928 -502.47001 -562.13302 -554.91006 -542.86924
522.95934 526.06279 446.36078 293.75653 260.65543 167.35111 160.89046 120.00652 139.45968 104.24233 146.93106 169.14726 177.15842 160.52966 220.08161 258.58746 335.38091 342.65428 325.94880 319.66672 302.23325 292.96597 236.81640 196.45221 194.97009 271.44740 289.88724 316.72928 367.02904 377.50361 440.85883 391.53189 302.48613 202.68944 148.39462 82.22599 46.36315 12.65764 12.33726 -3.82483 -6.12613 -15.33247 -12.96570 -17.10377 -5.96070 -25.69169 -28.04106 -37.80021 -50.30539 -51.94790 -46.68136 -42.69976 -51.60133 -60.73634 -45.59022 -45.58338 -24.73819 -33.48937 -46.12316 -43.66250 -39.74837 -41.05157 -33.24995 -36.90644 -48.69765 -70.66220 -71.56930 -70.59829 -70.07801 -64.20587 -69.56273 -66.40506 -85.26246 -91.39215 -85.77993 -93.74910 -87.60589 -91.91836 -90.62975 -89.62357 -89.52340 -97.86569 -102.79838 -106.22970 -112.75795 -108.88528 -109.66922 -117.16641 -115.94062 -116.04935 -118.83255 -127.14793 -126.31629 -121.51472 -118.47180 -117.25057 -137.51218 -129.39145 -125.42041 -137.08391 -135.42608 -139.95246 -139.75117 -142.99498 -144.34878 -143.91184 -147.73430 -157.47853 -157.10180 -256.71412 -285.45621 -430.40862 -427.26835 -384.29614 -376.05374 -387.99749 -299.12141 -351.64914 -291.27294 -281.32743 -315.56268 -299.28906 -317.47732 -297.79327 -309.55084 -318.54961 -340.90049 -380.16541 -393.05072 -445.43605 -451.56467 -488.19236 -534.39309 -578.45195 -573.59997 -578.01542
522.34753 524.87264 439.93715 298.29538 278.18632 210.38481 185.17423 149.91120 151.53186 136.36884 97.79426 126.51600 117.43894 131.48693 192.24478 212.93297 248.25796 240.92234 254.24621 266.87741 279.29761 246.76447 183.09917 158.08895 156.04851 203.58329 269.08312 289.85467 288.64173 330.41497 386.95193 370.41289 324.47450 210.57484 168.34491 104.07408 115.94084 28.12962 43.11985 22.94655 17.91938 -13.61602 -6.52115 -18.33546 -32.60583 -37.20509 -32.83995 -32.16145 -37.66149 -52.24160 -39.89605 -36.62558 -39.47041 -34.23310 -42.72715 -31.45720 -13.14847 -28.95521 -29.63923 -32.81590 -31.16239 -28.59898 -29.17713 -43.31261 -45.74215 -51.09033 -59.99519 -57.31295 -64.73737 -59.28524 -65.67291 -73.56748 -79.60752 -84.40891 -89.24685 -91.00078 -85.43102 -87.59355 -92.58140 -92.78743 -96.49289 -99.16047 -97.64570 -99.13134 -114.67938 -112.75651 -115.36680 -111.17707 -118.23791 -112.71324 -104.98427 -124.64344 -110.74137 -122.26087 -130.36768 -123.69378 -123.59933 -125.98124 -131.75863 -132.27868 -134.63939 -135.01846 -130.39031 -128.82553 -139.18914 -140.36657 -140.24155 -158.82987 -152.53607 -196.80347 -235.08829 -210.25544 -232.87284 -239.49390 -273.82847 -263.04545 -252.54298 -253.74601 -239.21388 -275.95800 -291.00097 -282.42546 -255.68881 -277.75212 -286.09857 -305.09448 -318.86849 -326.31532 -399.23727 -419.30998 -453.86341 -558.75055 -560.62101 -585.34472 -642.91756 -639.91910
548.12579 554.53439 560.30974 360.57753 302.85630 266.86054 225.25187 222.63365 204.97006 151.00535 132.64766 85.88639 103.82304 111.48443 184.13073 189.49409 226.19982 223.16125 210.77906 233.33679 287.19421 261.54169 186.03264 139.36226 117.06836 163.29409 203.53692 211.76700 206.06291 294.95514 369.34106 362.84393 357.76989 289.32803 209.18611 209.36436 235.99399 163.53712 119.46146 91.28917 91.82370 58.34460 10.41491 3.69657 -2.79027 -28.12892 -24.31263 -30.04325 -30.42007 -31.03100 -7.07974 -7.51265 -1.32691 -29.21345 -11.54986 -3.95470 -23.03881 -7.24371 -3.52016 -14.66053 -22.57016 -26.28981 -24.44189 -26.84145 -46.22964 -43.28005 -57.57049 -56.03031 -55.29091 -62.51724 -69.98944 -71.93262 -75.26672 -82.94998 -77.46028 -81.42112 -91.62385 -96.14451 -89.38552 -91.73567 -100.48508 -93.49443 -101.25024 -105.13902 -113.50431 -114.43465 -116.61740 -120.70133 -109.76359 -111.75216 -118.73378 -123.22917 -115.75981 -122.31437 -126.53383 -120.02476 -123.70409 -125.36825 -128.20644 -133.01784 -136.27859 -130.98233 -142.97093 -132.22211 -135.06434 -134.66442 -147.25095 -141.92575 -150.82119 -178.84099 -191.64313 -185.44323 -174.26401 -207.08339 -200.41172 -223.81388 -209.39703 -201.92813 -215.57634 -227.39522 -251.37225 -224.13848 -242.23777 -228.35368 -266.12977 -265.63546 -291.97570 -321.05211 -382.28005 -414.14714 -487.45690 -562.41378 -641.61887 -698.59232 -720.85855 -707.63431
577.39107 571.03618 598.45212 386.32290 317.82379 303.86064 286.45101 257.56932 189.24238 171.73845 106.33212 57.47356 61.50366 81.24516 135.58174 131.71106 138.88908 166.53299 185.11916 228.22244 277.48587 296.16166 201.81356 130.40642 94.07744 91.71239 132.16635 157.72222 181.99071 268.97392 304.74480 353.89266 372.89318 300.29092 267.43306 251.15085 262.72225 234.50160 205.53868 172.98472 149.73001 110.08882 53.04633 19.24785 18.62071 -1.73880 -6.88631 -4.29009 -17.53052 -12.65898 -3.46123 24.32363 23.27342 34.16931 25.40231 10.41632 -0.03334 3.73628 -4.32022 -6.29627 -17.31906 -6.95825 -15.76525 -22.56159 -45.88589 -45.10069 -46.15713 -54.90423 -54.74404 -74.31703 -68.17287 -72.78161 -84.56855 -82.45019 -83.98202 -86.01848 -88.83576 -83.82732 -93.08142 -91.27830 -100.93987 -107.59570 -100.81646 -102.31058 -116.95016 -113.32929 -111.70669 -114.04256 -116.73344 -118.47224 -114.53235 -118.00721 -125.01429 -121.35009 -122.50078 -126.51445 -125.39426 -118.91803 -121.69270 -125.38716 -125.58698 -131.82139 -140.58676 -134.90989 -136.98680 -137.93534 -142.40868 -150.00570 -150.83854 -155.50210 -156.41386 -163.49500 -160.58451 -163.41430 -168.02064 -169.03242 -159.36876 -176.76293 -183.75144 -187.29548 -192.59824 -196.95981 -211.74055 -216.49248 -223.23625 -234.69914 -268.58410 -282.83147 -347.50492 -395.44653 -502.84163 -555.74848 -648.97351 -707.31140 -767.69008 -763.32392
644.47837 644.65961 564.88993 438.86365 438.82906 341.62520 317.10537 246.97526 199.30146 135.55073 78.78458 57.98508 36.43897 50.07752 80.94013 89.34493 76.91284 147.79634 181.86445 214.03452 266.98356 276.39236 247.06277 178.09678 115.10358 79.24785 86.62848 120.85574 155.54554 226.05016 271.51723 335.17235 340.25723 335.83147 342.26019 338.13114 326.69680 298.21466 266.18357 210.20188 182.41216 137.26486 52.58353 41.83646 45.90089 43.96626 8.88305 0.68269 -5.45235 13.04723 18.71967 31.44214 54.18419 57.60986 49.32497 29.75679 34.09760 9.21335 2.65806 -0.84184 2.53734 -4.17823 -9.13957 -17.01951 -26.01187 -37.43283 -47.15216 -52.53165 -68.06728 -65.34520 -71.95348 -70.65479 -81.21251 -75.04626 -77.81945 -95.89608 -98.25207 -95.52406 -95.13508 -97.56880 -101.12251 -103.18307 -107.04973 -108.67134 -100.66460 -108.90526 -110.33176 -107.51414 -113.85174 -119.99854 -116.88362 -112.39883 -118.11182 -110.95444 -118.92132 -125.89414 -122.58283 -119.27717 -121.17160 -123.69923 -129.39905 -124.84115 -129.56906 -124.99161 -135.34410 -146.12225 -135.07507 -149.64228 -149.02768 -152.67781 -157.23954 -163.00042 -160.50116 -164.76185 -167.89400 -162.77714 -163.40117 -165.63676 -161.27159 -179.04022 -177.86345 -178.50018 -182.52650 -188.87726 -184.72950 -204.11247 -227.93318 -265.55232 -305.16942 -337.73947 -448.55517 -570.30997 -604.57860 -736.29992 -748.20879 -746.23364
668.66717 663.82929 562.71300 546.26032 521.87960 434.87010 343.61917 277.16814 212.07462 178.32401 111.80697 83.33654 47.59737 44.48961 28.36485 33.79266 46.75401 83.72541 144.16195 216.04133 229.28269 277.41493 213.87740 168.51046 103.96159 69.98081 82.59398 126.92816 198.57277 253.34716 264.06611 259.11682 249.61742 281.81057 305.49169 333.62777 324.82788 317.56698 296.55621 267.89108 237.61325 174.76663 123.48784 85.86396 80.11674 85.27260 58.77587 52.98107 18.31351 11.74336 17.57613 35.41056 55.20460 62.65065 52.66578 40.90445 23.95954 12.24435 10.24748 3.35558 1.92983 0.55586 -8.08574 -9.58142 -22.49289 -39.80736 -50.14538 -56.69307 -63.99946 -69.91677 -73.20891 -70.48722 -70.79858 -85.52105 -100.00874 -91.98144 -97.73895 -95.70135 -98.97352 -97.06597 -100.97109 -103.37884 -109.27560 -96.80063 -112.35564 -98.62831 -118.77304 -113.07587 -109.42855 -114.75450 -117.88806 -123.75895 -121.03731 -122.78877 -120.33042 -132.52234 -129.08494 -117.53622 -119.90921 -112.58225 -131.69092 -135.29723 -130.87707 -132.07094 -140.32628 -133.18823 -136.19674 -138.54163 -146.61786 -140.31808 -151.70279 -152.71372 -161.71171 -167.30977 -149.61790 -160.59428 -159.70940 -161.50536 -158.01086 -160.64440 -166.90723 -158.29572 -164.07634 -168.93350 -169.99357 -176.99067 -201.69425 -237.62896 -251.89745 -287.74411 -410.18021 -540.95244 -621.52701 -682.68965 -713.75245 -720.33264
671.46413 665.24767 683.72890 604.39145 635.18317 545.47905 477.43157 360.85125 279.38600 210.41200 164.50586 122.23819 62.87823 64.33716 36.43346 17.10184 23.52179 47.05271 92.61443 180.56949 191.89606 207.34418 180.89656 108.06077 96.31093 56.41236 80.29359 161.37086 198.00138 222.56873 246.85329 220.70476 204.96800 208.91665 222.45880 274.59381 290.65845 289.65960 305.16810 296.49594 267.01256 228.48837 168.94530 121.07252 138.73067 122.79440 92.69481 76.14185 54.68598 48.92952 15.05484 32.26117 41.26294 41.22052 29.69827 5.45156 8.64618 10.15766 -3.31522 -4.92890 1.11722 -5.32760 6.18538 -6.71541 -29.89719 -37.46130 -50.28288 -51.49749 -54.33370 -62.15913 -67.38725 -69.82184 -71.86782 -87.32428 -83.39201 -88.68064 -97.89707 -96.23006 -95.11795 -98.59809 -99.16634 -101.44501 -103.52693 -98.13504 -106.20943 -111.83666 -105.67149 -111.36746 -110.25546 -114.87904 -116.85403 -115.76830 -116.69847 -123.61657 -114.31174 -132.37717 -115.23947 -111.12439 -120.42624 -121.10780 -127.26721 -130.99624 -127.59235 -131.30901 -138.87229 -142.58880 -139.55304 -141.38415 -148.79450 -149.57523 -147.88863 -146.08377 -156.86239 -159.55238 -151.34114 -152.97485 -155.73870 -162.68843 -164.56414 -163.05925 -156.04786 -156.95841 -154.76890 -151.25161 -163.25562 -166.44144 -168.28855 -199.88647 -244.08588 -278.39154 -399.51549 -489.06284 -510.20007 -631.52541 -659.19122 -659.50134
760.90310 772.96610 717.59210 645.73697 637.08613 587.63028 498.52350 420.13275 315.62476 281.63827 254.79013 171.10431 123.27152 89.70097 51.97296 15.66433 13.41232 38.27731 97.17193 134.12976 128.30049 117.61705 123.44903 92.39969 67.23382 37.48799 94.18146 141.77144 182.37075 184.62574 184.07880 165.87443 148.99992 161.52673 191.62207 216.21737 233.46656 252.30479 268.59636 286.00826 270.05978 228.18856 174.35964 144.75513 142.92962 138.08546 122.70024 99.79772 84.87559 70.55014 33.11561 31.04736 28.88164 31.37165 1.47003 -16.57563 -16.71320 -11.97206 -16.80019 -11.10965 -9.59322 -2.92032 -4.34384 5.32095 -16.08258 -29.84042 -22.19784 -44.76986 -50.90861 -50.48876 -66.40017 -58.39014 -76.18038 -79.68669 -89.35643 -93.08113 -87.91280 -95.37910 -94.76951 -94.78894 -94.98680 -108.84389 -104.13524 -100.54848 -105.90974 -98.31703 -111.22806 -108.37392 -110.50564 -115.84675 -118.21079 -117.70844 -114.37138 -123.46274 -124.67637 -118.93215 -113.29162 -121.07976 -116.81393 -123.92301 -123.55310 -129.97031 -127.59314 -126.37474 -131.72637 -138.34185 -142.35718 -145.49572 -139.89647 -151.98895 -150.64177 -146.41004 -152.67554 -154.73739 -151.07631 -150.46452 -158.99531 -154.01636 -147.43881 -147.60749 -156.59715 -143.90512 -141.38634 -147.21050 -143.14609 -152.36658 -155.52677 -178.33938 -190.23731 -265.61745 -309.44831 -438.90645 -435.56648 -536.48613 -573.79424 -575.55890
762.86239 755.63046 757.01460 617.29240 630.31300 620.16591 559.93943 490.57439 390.05820 317.91928 276.84431 176.15710 131.34545 82.19223 53.19576 13.47894 12.00372 47.38796 77.93249 123.17290 102.65608 92.78547 73.43379 51.01438 36.86089 43.32092 96.31880 154.92267 162.72218 166.58910 149.73498 105.52217 98.63063 156.51830 157.50652 154.31732 178.88753 195.21311 230.76983 262.87561 251.83725 220.97059 188.03255 152.26250 149.87516 143.82812 129.17657 93.55648 89.20001 68.03826 67.36825 20.21113 11.13015 3.79067 -8.66353 -11.24804 -4.37240 -16.41602 -11.03180 -23.25019 -25.81661 -23.58858 -14.18459 -9.63935 -9.82646 -10.18297 -28.49176 -47.87374 -46.62792 -62.32038 -69.22784 -67.95149 -75.53334 -84.07875 -81.39257 -77.06343 -95.36177 -95.98488 -97.05975 -98.37309 -106.43839 -107.95872 -107.70933 -104.55625 -99.51828 -105.80085 -115.33129 -117.35085 -111.49576 -117.30712 -112.19307 -115.48422 -121.06279 -124.09599 -123.36397 -116.07577 -120.86056 -120.94437 -124.13912 -118.08887 -120.83907 -127.36381 -129.55954 -130.99797 -132.47728 -126.45785 -136.50936 -142.57421 -143.20965 -138.10523 -141.43893 -146.21859 -147.33796 -155.80386 -152.23639 -146.67968 -149.39942 -157.73366 -143.35529 -141.68681 -135.18217 -145.85967 -129.87786 -129.80341 -130.88663 -141.89501 -148.51050 -147.23630 -185.18020 -202.87388 -223.94102 -358.90796 -377.13292 -478.74295 -494.05736 -489.35166
752.03076 748.26689 641.53431 599.73124 603.81980 613.06305 547.58250 456.69050 423.11307 318.65945 254.00568 178.37204 148.30343 111.03895 60.40363 36.06635 36.82752 31.13910 39.72515 66.69084 42.33004 55.41751 54.29192 22.45640 40.93111 69.69765 111.26633 147.19706 174.72935 145.98419 95.24864 80.04329 86.22931 133.18183 140.62099 126.88773 132.39015 151.50771 214.68108 239.18373 226.43426 187.86226 135.05418 117.30696 124.14114 95.20469 84.80910 81.44402 61.28483 51.53962 34.91535 24.53003 0.89875 -2.61227 -11.07125 -11.08100 -20.99918 -24.04764 -26.28290 -29.94138 -21.57090 -26.30319 -18.53056 -6.23338 -2.89699 -18.01746 -32.62868 -41.08536 -65.62742 -65.14269 -70.78148 -75.41819 -75.15784 -80.43693 -81.67801 -92.62508 -96.66137 -90.78294 -109.98337 -100.96523 -97.77629 -103.92666 -110.48153 -113.91880 -108.99297 -113.99183 -107.22525 -112.57367 -111.17423 -106.80341 -114.83685 -109.96184 -123.60864 -115.36779 -107.33745 -116.86819 -120.41056 -122.92874 -125.14227 -125.53180 -125.83484 -119.73144 -127.33477 -126.82005 -126.78529 -136.57895 -134.35215 -131.54223 -137.65556 -142.65573 -141.86482 -147.27154 -147.49446 -145.39461 -152.92117 -149.05166 -143.71376 -145.15957 -138.15784 -138.43821 -137.15109 -132.06100 -128.03606 -123.72847 -134.55546 -135.92825 -139.40570 -145.59862 -165.64582 -168.05731 -186.95057 -262.36346 -307.38858 -369.59549 -409.63960 -407.06256
736.38516 737.13924 640.13569 518.87749 574.79725 592.45088 503.57234 421.00365 308.55046 286.29259 234.51548 152.71685 134.48759 77.31842 111.40054 72.06751 43.89021 8.68708 2.55226 7.98670 15.43818 8.64696 6.50875 1.06600 40.55705 65.07739 109.00640 142.73678 137.82512 124.78263 86.33982 41.39376 41.22398 75.24042 89.99345 105.58516 140.34740 154.69179 204.71118 236.42426 213.04345 197.86811 108.64515 84.31568 65.44648 73.95883 58.68658 54.98332 52.23696 33.03410 28.96852 3.89854 -10.48704 -9.64804 -8.09189 -7.24823 -13.52476 -11.04808 -8.95913 -23.77474 -34.96013 -33.12656 -26.99204 -4.13704 -9.46998 -9.23735 -30.21789 -42.11296 -45.10299 -53.22484 -64.53064 -68.03962 -64.63365 -80.02591 -79.99063 -84.17931 -91.88205 -93.15987 -102.65081 -104.59469 -102.24847 -103.04480 -107.06579 -110.62109 -110.82485 -110.59421 -112.42038 -113.03739 -124.58064 -118.52989 -118.58985 -117.68529 -117.66343 -116.30771 -126.07860 -116.85218 -121.87782 -125.71120 -124.50845 -125.50732 -127.80734 -119.78309 -123.06687 -127.74810 -138.37605 -135.04230 -129.62554 -136.29222 -136.66373 -136.71887 -132.62504 -138.15477 -144.45395 -138.74334 -137.80782 -146.71097 -144.01216 -140.66947 -132.50641 -131.16462 -132.50341 -123.51755 -128.13960 -104.97089 -124.50612 -124.91333 -123.18041 -139.59936 -150.25975 -164.71440 -171.74652 -193.39124 -213.85475 -273.21092 -325.16839 -324.34950
628.09599 619.74905 560.38874 449.40605 463.24335 532.45492 499.81510 406.99674 315.67999 240.32606 160.23777 132.48627 120.08256 155.33050 150.25488 127.77733 59.15696 14.04312 -0.04540 9.50239 21.78511 9.44548 1.62399 11.49804 19.63220 43.37415 57.34313 113.31593 104.38667 102.00407 58.33983 34.50546 21.04443 66.00604 57.43344 98.65794 135.71558 185.49198 194.54946 193.01761 180.10582 118.05189 92.12886 52.72928 52.06317 40.68136 25.29188 28.29006 31.36160 18.82708 11.66197 -3.93167 -4.45894 5.55317 -1.44777 4.85773 -6.24035 -4.99094 -2.45283 -6.32052 -23.35350 -34.61050 -35.97159 -11.31171 3.34342 -2.61348 -21.91846 -30.89979 -36.33844 -49.48682 -56.64797 -61.54481 -64.63527 -62.59987 -76.57036 -85.24745 -88.23162 -100.22447 -99.27880 -100.99275 -95.37084 -105.25453 -105.86378 -109.14914 -118.58280 -109.04718 -114.24673 -121.22097 -117.28765 -107.37292 -110.53415 -121.35051 -118.43394 -116.15348 -117.32552 -126.54640 -115.98497 -120.43399 -123.36281 -125.11758 -128.30004 -131.16821 -126.14362 -129.48763 -129.92397 -140.80343 -134.97831 -137.59980 -137.38788 -139.04795 -132.98328 -136.08944 -138.85252 -140.06056 -146.97615 -141.22172 -143.84207 -131.59130 -133.40254 -119.53696 -112.86759 -109.78053 -99.37394 -100.60563 -108.67313 -113.29955 -121.39833 -130.28821 -152.23515 -144.98109 -162.17310 -185.85792 -185.64836 -233.38797 -243.40329 -241.32106
521.23713 523.89210 495.55406 439.17616 453.25402 511.20692 511.26297 460.34461 337.81693 242.39660 140.59669 131.96377 145.80116 189.78742 229.26704 129.19066 91.98588 56.32565 61.94671 73.16965 44.28456 31.86575 17.53016 0.37092 10.56076 30.14267 24.71487 31.17874 69.55466 59.42882 38.71063 17.78874 17.94528 18.66776 30.52428 63.11560 143.83988 162.32744 162.93160 177.88885 144.58551 101.92564 65.50734 56.63503 37.44078 37.10731 16.38579 18.12605 17.71751 5.01427 4.32352 18.87735 21.74269 28.88495 24.05261 14.33619 0.91998 3.43748 -2.74810 -8.29345 -21.73316 -36.59396 -30.62077 -27.48621 -12.44032 -8.52884 -8.18558 -27.49987 -35.38318 -43.73048 -46.34359 -55.35764 -60.49040 -69.95553 -77.45584 -79.58073 -92.28756 -95.76206 -93.85695 -87.75144 -101.63896 -99.42102 -99.49138 -105.18176 -105.33567 -111.38179 -112.01966 -104.95847 -123.24528 -109.30893 -117.57500 -117.70604 -109.05337 -106.07642 -119.65134 -121.81207 -113.81779 -119.58168 -114.70498 -120.95988 -123.90664 -122.21967 -121.99769 -130.85705 -128.24532 -129.50753 -134.14916 -128.69509 -137.91340 -130.95858 -138.36570 -135.39553 -139.31220 -136.10370 -136.25886 -144.52602 -139.69962 -139.52899 -129.77787 -125.58119 -117.14496 -97.79136 -95.73854 -88.61133 -95.33317 -117.87523 -120.75733 -124.90357 -135.32539 -145.50946 -146.13743 -156.13081 -169.99365 -193.30717 -219.24341 -218.82679
344.15572 349.32826 437.43875 383.02895 393.39925 476.46306 489.52511 474.26411 407.49163 269.28509 158.65257 170.17210 260.90483 284.42187 275.44765 201.92422 134.39969 108.80458 127.92230 127.16781 111.73477 63.66094 7.55521 7.10731 -2.03749 4.06457 -6.67341 17.39955 35.19141 29.49820 26.72201 22.24657 15.93688 12.14327 8.40037 31.41975 101.69231 152.26261 160.08425 158.68849 132.97568 101.03621 58.28257 38.02367 38.15263 30.10123 33.61186 13.21292 18.65669 31.40639 28.38584 25.12946 43.06216 34.87448 29.77430 9.42734 5.00043 6.18403 2.39036 -3.26787 -18.01000 -16.29032 -36.06442 -35.49489 -20.04091 -13.24508 -2.80054 -15.19422 -16.46363 -42.06801 -45.45048 -64.27573 -65.33480 -62.96021 -73.70211 -82.30171 -89.37019 -92.50002 -97.01264 -91.72238 -99.34962 -102.94062 -111.88455 -117.11927 -107.21090 -113.24696 -112.34123 -108.13784 -110.43321 -121.54829 -115.15537 -122.86205 -116.74771 -116.80307 -120.88569 -118.32597 -123.49946 -120.62299 -124.62298 -113.83208 -121.89609 -126.25489 -128.83134 -123.90949 -122.86429 -131.17652 -128.00545 -128.11845 -129.72779 -130.30760 -136.86908 -130.10879 -138.33032 -141.86017 -134.31151 -145.12334 -141.32905 -133.18547 -125.18943 -109.62364 -108.79095 -102.05573 -91.61025 -92.47806 -97.55362 -97.65897 -105.82228 -124.09072 -135.82388 -147.13047 -138.82237 -158.70727 -159.09107 -179.79070 -163.36742 -168.73551
496.07387 487.44272 385.66931 332.97281 370.02311 408.32014 444.84469 450.98690 459.30668 364.91266 285.50433 270.46323 314.02094 321.30437 282.03129 248.35376 182.77971 121.28410 182.17053 191.76200 152.66503 86.72957 55.44270 11.60925 -4.79285 -12.10299 -12.31155 1.74357 6.45533 19.03152 25.77613 24.04513 13.72562 7.40747 20.30044 31.79464 97.44514 140.10856 153.01486 161.08900 132.16714 84.61914 66.28941 44.13229 46.03267 33.71617 36.09364 51.38735 51.24504 46.00072 52.26739 51.60524 56.16231 49.56196 41.69052 19.05163 0.70521 -5.56056 -8.47112 -6.44720 -9.81769 -3.60698 -23.54541 -40.95494 -34.83562 -15.45771 -14.31097 -16.89020 -22.46948 -29.86146 -51.13452 -56.07531 -61.38148 -68.67498 -76.29639 -86.49499 -84.71041 -88.23518 -87.11960 -88.66785 -99.48839 -101.34281 -104.23839 -107.78970 -113.28006 -107.30612 -107.14754 -114.79291 -113.21387 -113.61850 -113.09326 -120.83107 -109.42549 -112.35175 -110.87228 -118.47934 -116.98924 -114.39506 -121.97810 -118.09075 -122.52828 -124.42177 -127.10929 -122.81679 -128.78177 -131.46806 -127.31602 -129.87035 -124.17075 -127.99172 -126.99547 -131.57925 -135.97538 -137.83569 -137.22330 -137.14943 -133.13219 -125.94514 -125.85583 -124.91712 -111.51319 -105.04185 -92.43843 -96.41086 -89.11999 -94.69017 -113.72424 -119.34675 -128.72925 -138.99843 -140.78394 -140.67689 -153.12714 -158.62003 -164.99782 -168.91516
480.03899 485.26393 399.86373 317.18595 322.99618 381.47815 431.13524 432.46678 458.61783 453.53060 349.38609 331.33521 333.52102 329.26443 310.44334 239.55869 173.55897 158.62745 203.72851 230.53477 184.39721 139.45431 67.20215 49.58772 34.71421 4.17785 2.21077 -5.52547 -9.66615 -2.43856 3.93740 5.80249 1.27937 -9.67156 6.42130 42.87479 96.84060 136.02427 158.89987 181.59677 155.86231 138.01981 94.40776 105.72088 73.76380 90.27692 86.62365 82.91674 67.61748 78.73627 67.81179 70.36260 65.42709 49.28570 34.09506 11.58760 -4.48578 -17.60368 -19.71439 -22.59645 -1.33667 -16.36258 -23.13407 -47.86935 -52.72251 -36.14707 -31.29454 -22.48241 -17.83542 -29.14027 -47.38542 -51.61605 -63.74130 -73.59167 -73.17875 -80.75637 -86.97345 -74.79711 -80.20678 -91.25402 -102.00587 -98.07036 -105.70794 -100.71497 -107.72489 -104.58268 -116.78540 -109.27555 -119.70832 -113.78061 -116.97340 -115.18877 -105.55715 -113.89704 -117.71411 -118.89290 -115.45882 -110.16924 -117.86089 -126.44701 -120.67350 -119.13898 -120.77855 -119.87437 -128.72068 -125.21325 -127.47474 -125.13434 -129.15554 -124.84062 -127.09988 -126.40575 -123.63035 -136.51194 -136.94899 -136.25861 -136.36047 -127.67640 -128.80502 -116.02999 -116.62768 -104.13746 -88.59305 -98.58776 -95.33467 -92.16700 -105.36826 -123.27048 -117.61702 -127.20991 -140.81746 -149.55082 -148.85508 -158.83874 -160.53692 -163.91744
453.56191 451.47160 387.36329 267.12452 247.52175 342.75472 412.31167 443.03237 466.38537 459.13408 425.63361 393.25726 394.91743 398.12209 342.74618 288.61576 246.38146 223.74569 280.16921 288.84474 245.40469 204.20198 118.58573 47.65664 45.31877 36.39095 11.19833 15.82063 -0.36588 -13.79309 2.32080 -12.36449 -6.00934 3.75222 13.91812 62.10558 116.64588 134.18335 153.95682 171.13628 186.54120 156.19244 156.43382 114.39577 122.02810 129.36309 137.29357 111.73055 77.56989 79.44396 76.34892 78.68210 58.22771 39.25290 3.60268 -0.65548 -6.39388 -17.84590 -27.87041 -30.94554 -27.11764 -23.68980 -33.53577 -42.48448 -45.06672 -37.61971 -17.01407 -21.15315 -16.04009 -25.76000 -26.62391 -31.27013 -58.39551 -69.53266 -63.16579 -68.68676 -74.17731 -78.81148 -81.24612 -95.49323 -95.41025 -114.86508 -94.61808 -100.25391 -105.61703 -102.89251 -106.99493 -117.50514 -112.37021 -111.85966 -115.37442 -110.22713 -107.92722 -117.82883 -117.17842 -110.80475 -117.39839 -119.21186 -120.83368 -119.41822 -115.00869 -118.12070 -114.76441 -125.97581 -120.56417 -123.56858 -123.59407 -125.38001 -123.42768 -131.79490 -130.29297 -123.64637 -133.24747 -132.14795 -129.37223 -131.10805 -125.33188 -133.20219 -121.58562 -117.54326 -116.10505 -112.13876 -108.21832 -99.66498 -103.79805 -91.41772 -109.30803 -116.45095 -130.66803 -130.15244 -133.60532 -138.83999 -149.67327 -153.35777 -155.41968 -149.43752
449.54903 443.72688 359.20922 281.41326 259.70220 289.16534 379.63850 452.00317 498.90719 449.70913 407.36154 421.89285 446.21398 450.32430 411.38746 366.81948 300.46233 321.57167 387.39680 365.55120 335.12392 253.10794 193.39299 148.96908 101.38075 43.04863 46.36476 55.40419 8.77717 -1.24661 -13.25337 -15.94109 3.12640 28.35760 36.73048 84.90401 123.31833 123.85619 134.21839 146.27882 176.85414 169.20293 153.82253 128.38155 131.25632 133.51411 130.58437 113.79789 78.24286 77.60218 72.35881 74.06183 50.93995 20.71228 -5.76152 -4.45617 -6.37103 -21.00514 -31.65305 -38.51212 -40.54526 -31.47465 -29.36224 -50.64025 -43.47050 -35.33271 -14.59025 -19.65123 -11.88472 -21.09582 -25.06078 -27.42111 -36.49385 -47.14453 -63.47018 -59.20564 -74.43572 -69.52422 -87.64937 -87.91286 -92.90449 -95.01152 -99.38646 -101.46617 -105.47379 -100.80679 -103.30107 -107.14206 -116.34712 -112.32931 -118.23291 -107.63005 -117.34192 -107.60116 -111.25194 -115.02487 -114.52888 -117.87487 -120.71653 -113.58119 -110.78979 -115.61279 -128.45757 -119.65491 -120.69097 -121.71210 -123.77071 -117.10478 -126.11811 -131.54075 -125.59890 -127.52601 -125.72018 -128.07093 -132.39967 -132.32860 -119.26319 -129.40945 -117.72346 -116.53061 -110.76032 -110.90323 -108.84589 -113.73099 -102.75452 -104.05482 -107.67592 -105.29955 -114.53378 -124.59514 -124.07744 -134.14301 -133.00385 -144.98308 -148.07894 -146.43095
388.04223 388.49820 395.66816 226.74634 220.39771 282.74305 357.21054 402.09562 439.35389 425.16588 414.79986 437.81536 455.01660 462.65558 431.53485 381.36350 362.71648 418.98141 463.30164 457.92828 419.98861 362.81515 213.65897 190.80403 138.04149 104.99066 60.27612 57.29913 18.88780 -14.77782 -14.24715 -23.83819 -9.76546 14.56306 40.93585 77.66143 113.63483 133.61982 145.43925 136.57440 144.73684 146.96264 122.94844 129.09154 123.26017 126.78478 121.02232 101.39094 60.30689 58.82996 72.67781 58.59314 58.03151 9.82936 8.51185 -9.97179 -11.24034 -31.34737 -26.24124 -43.78769 -46.94238 -41.37228 -49.10895 -53.48957 -51.79615 -44.24968 -35.92413 -18.39124 -19.55143 -12.35106 -20.90142 -27.33705 -27.25124 -39.05154 -45.94954 -60.40009 -65.62935 -86.18222 -85.08022 -88.41451 -93.86723 -97.10208 -100.77770 -101.75344 -98.82959 -100.29897 -104.90524 -100.95501 -105.30530 -107.89798 -108.31703 -108.66704 -110.51295 -103.29614 -106.86105 -112.84950 -113.24970 -110.28864 -110.21192 -120.72998 -117.11955 -113.49850 -115.75577 -115.56186 -120.81739 -117.66740 -124.62051 -121.56043 -128.01793 -123.40660 -122.07503 -127.78502 -123.79347 -125.56536 -124.39139 -120.15207 -130.97040 -122.59650 -125.41502 -116.85372 -112.94874 -112.87058 -114.36990 -105.26672 -100.94359 -106.01705 -94.14189 -102.54483 -102.47489 -123.19599 -124.30787 -119.10708 -133.93916 -145.55742 -144.64458 -136.56125
349.05075 342.57346 288.37999 224.78668 225.62932 248.72394 293.14842 348.70210 403.94218 434.54651 384.40091 387.84933 406.05378 442.26083 452.93927 445.76949 428.72541 426.24039 503.15571 524.50292 490.83427 461.29249 343.52942 269.29003 180.59852 153.53603 91.07919 55.76412 13.89975 -11.44050 -17.16100 -7.44104 -14.87791 -3.73794 26.93373 56.41945 97.90326 105.35181 132.87626 109.26141 80.40683 96.46005 99.46553 105.93344 117.16541 104.01736 97.05829 67.78612 42.83677 47.81784 55.59441 52.78920 34.84804 26.98204 7.50923 1.75493 -7.82738 -15.08296 -24.12658 -34.32029 -54.53111 -49.35608 -57.75862 -55.74967 -56.31777 -45.91517 -47.30413 -37.10771 -31.27352 -16.06777 -14.64964 -14.74624 -29.32156 -29.27049 -44.59348 -55.50055 -65.49223 -80.41793 -89.54254 -87.39913 -100.30891 -99.28650 -103.38035 -102.64245 -101.02595 -104.07487 -99.06585 -98.79841 -104.48880 -104.73925 -107.66480 -111.88826 -107.99813 -102.48769 -106.14669 -111.09014 -112.45936 -109.34752 -112.54046 -112.56194 -112.13033 -119.83979 -125.57023 -110.08218 -113.93816 -117.42722 -120.99694 -124.72396 -122.29217 -130.33807 -127.25984 -125.19198 -128.32383 -133.33070 -126.45438 -118.91906 -129.01531 -128.94423 -132.63700 -124.78605 -118.34691 -115.23010 -119.17986 -108.00983 -110.59953 -113.99913 -105.38845 -97.61272 -106.92589 -115.88073 -121.61395 -124.56964 -132.25914 -135.43780 -137.60933 -135.20157
327.30249 327.72593 267.26833 220.32069 220.98454 265.51352 279.03080 283.29189 317.85191 297.66036 280.26086 277.55867 314.94386 354.62849 436.40472 453.97500 453.64975 464.69475 495.69802 540.51067 549.74386 498.90444 413.38266 292.64960 171.87815 164.08728 97.63804 30.54126 21.39390 1.76044 1.97781 -4.55215 -11.05086 -12.43338 -1.55612 58.57663 82.90820 98.52906 83.32337 58.86386 55.55516 61.33219 55.83785 92.20127 79.17444 64.18100 76.36669 57.20676 29.76857 36.83034 40.70369 34.96459 41.29221 27.02880 12.60463 5.60665 -9.85339 -11.91432 -20.49983 -25.90551 -40.41984 -56.50201 -54.01201 -54.91866 -55.06230 -58.07504 -49.97215 -49.92971 -33.51511 -24.89242 -4.55786 -11.80156 -30.24728 -40.76958 -42.12566 -56.93472 -74.36982 -79.89526 -83.51202 -82.60101 -91.73779 -96.52609 -99.47407 -97.68950 -98.28596 -96.76133 -100.53204 -102.54518 -96.44223 -109.04689 -102.97662 -108.33555 -102.08809 -112.73473 -103.21099 -107.50132 -105.75616 -111.86560 -109.20727 -105.23573 -111.61406 -113.96863 -116.39275 -120.03306 -122.45268 -119.54240 -111.21116 -123.73909 -131.11375 -122.55313 -116.85267 -122.20969 -120.92136 -127.81630 -123.30902 -125.61576 -128.52731 -127.29737 -129.11143 -121.45218 -128.05440 -125.90223 -119.71505 -109.06190 -112.67722 -108.70196 -99.66883 -108.53242 -103.66255 -105.71243 -116.35796 -123.54631 -116.78664 -124.58002 -140.92814 -141.35246
271.98695 278.88140 281.31456 192.90082 202.98276 253.36763 291.39420 285.10795 259.66625 237.79311 226.12412 250.27345 258.41865 326.88781 390.45799 415.29687 424.91600 430.60301 466.73140 515.85060 522.69512 495.55130 384.20624 339.26101 198.03229 151.62479 104.66952 35.76126 30.24871 40.68700 33.64655 12.46006 -16.02056 -12.22235 2.81096 27.24721 44.39799 51.75818 43.03534 27.47297 21.11609 33.87508 38.08410 40.18252 59.81602 42.40551 35.12574 24.46523 17.99615 7.63638 20.04000 13.81043 20.05918 23.01439 21.22872 14.33663 -8.39080 -6.00257 -18.58788 -19.91098 -27.22553 -34.12087 -47.04691 -49.29905 -48.18677 -58.76192 -51.85159 -39.86183 -34.96519 -22.82803 -12.15427 -10.73292 -25.00933 -37.43838 -41.62865 -56.15438 -66.43062 -78.54729 -83.98470 -83.54583 -88.24883 -87.71745 -97.45406 -95.60482 -94.43036 -91.81863 -99.40511 -96.28242 -100.32122 -105.73482 -97.57682 -101.77607 -102.25022 -104.24898 -96.55538 -106.05820 -105.12136 -101.10117 -111.85782 -107.74818 -113.69721 -111.04258 -111.85941 -117.27990 -118.83177 -115.63918 -117.38037 -125.92915 -118.04346 -127.60013 -132.30061 -125.74579 -122.70691 -120.02627 -131.86252 -124.30903 -120.88510 -128.29448 -122.30395 -125.73162 -125.57137 -122.69524 -111.88484 -115.50056 -123.75274 -114.70458 -111.44730 -97.01480 -103.98108 -95.74590 -109.31875 -106.37781 -121.39414 -134.86128 -130.58240 -120.14014
269.94150 268.99561 224.79426 175.85419 191.57429 248.97000 261.09229 270.29838 253.10968 226.85347 203.57286 206.62960 295.83287 319.51583 368.69675 381.06267 389.08907 366.59386 370.05566 340.59222 379.48651 366.93384 360.16260 276.22424 213.73722 178.84181 106.96299 67.78538 64.47337 66.98772 42.06584 10.59178 -0.70689 -14.85887 -1.59437 13.05417 33.40301 32.05576 6.75385 5.48531 10.80233 26.69966 19.44192 19.55439 32.43323 46.97662 44.12724 40.60864 28.28431 14.52142 -3.16827 -6.30509 -1.10604 12.97150 9.26404 1.94859 -2.49154 -1.37902 -9.16437 -16.18173 -31.16080 -31.21516 -42.82316 -48.39312 -54.05970 -67.76765 -57.26109 -51.04806 -44.60411 -36.27387 -26.03767 -20.18632 -27.42586 -28.28158 -46.08740 -60.23821 -73.73101 -72.40496 -85.70085 -79.51526 -82.63468 -90.29157 -88.44829 -95.50395 -91.10121 -89.41376 -91.95410 -92.71424 -100.58938 -98.67677 -94.36935 -99.90354 -98.47773 -104.76561 -108.01954 -101.10614 -100.70186 -105.86837 -116.11906 -109.81952 -105.29081 -110.65426 -115.84861 -121.09911 -128.00491 -119.42846 -113.32565 -127.98103 -123.56623 -123.89057 -128.56496 -124.30572 -122.44640 -135.36906 -125.89730 -121.63789 -128.47432 -127.38933 -123.63278 -125.56828 -128.43813 -126.97947 -127.17952 -122.30613 -117.93365 -118.51588 -105.43521 -104.60395 -98.97601 -93.16286 -102.11477 -111.01942 -125.52205 -119.48711 -124.52627 -121.52931
271.41164 262.49062 229.09462 187.68455 180.86636 209.78023 240.81569 232.87965 219.84576 186.38369 197.33960 227.36721 267.10240 326.28990 337.03286 330.09113 311.63092 336.82285 333.69519 302.22392 273.47182 274.77480 301.05461 334.28731 258.43972 161.33469 146.14744 99.84392 77.07270 83.51386 30.62209 11.79858 -7.70778 -14.70007 -12.75764 -1.82446 7.90181 8.08974 -6.16952 -5.07293 2.25463 0.19918 11.32781 8.20610 21.16049 38.92695 46.69063 42.88572 19.43354 23.66357 0.27219 -8.98222 -12.60222 0.07070 3.62222 6.69991 -1.56200 -12.07808 -11.59325 -24.36424 -20.48119 -35.42245 -47.21253 -60.30956 -62.73554 -74.74522 -63.53205 -37.22780 -42.79150 -33.14028 -28.10566 -28.63361 -32.89868 -37.67912 -48.00461 -58.52926 -58.73262 -65.89802 -72.99302 -75.93526 -74.38826 -76.70457 -84.53593 -90.91430 -84.03600 -83.70378 -82.58890 -98.39106 -89.12411 -99.09769 -103.78949 -95.74858 -105.66865 -106.65431 -97.11116 -109.67868 -103.24725 -104.64240 -107.72275 -112.89150 -119.62024 -122.91530 -120.07585 -114.17091 -122.33780 -117.10287 -117.65442 -124.76830 -128.23862 -126.84526 -123.94634 -122.82237 -121.49151 -129.50701 -129.46306 -131.64428 -135.42038 -132.54178 -131.49094 -127.42558 -122.77976 -123.39842 -122.30297 -126.95764 -121.14409 -119.27125 -117.64094 -106.68038 -97.10155 -101.63823 -106.62283 -114.64051 -122.24220 -127.92286 -127.23744 -128.57072
260.02207 264.04910 262.98880 168.82612 161.09836 210.46445 223.76687 208.99515 175.09950 192.32657 201.84635 227.27489 280.00156 297.90686 276.89855 280.61844 286.05004 298.92060 301.32868 278.85556 248.91863 269.88197 298.50180 330.44950 290.81206 207.76658 158.28502 91.62397 89.51581 59.85234 21.36701 -7.86591 -10.91523 -19.24736 -17.80402 -6.78880 -13.60394 -7.22704 -11.15842 -17.48582 -12.47801 -10.54002 -11.29566 -21.93250 9.95234 23.00450 38.14773 37.77514 37.22010 34.18856 5.79845 -10.03637 -14.74252 -10.89832 -16.72078 -16.92649 -17.87637 -24.46123 -18.01616 -21.47756 -30.72696 -34.01731 -48.73517 -56.68163 -69.71004 -64.55083 -56.78368 -52.92154 -46.80084 -36.69213 -37.85469 -51.51404 -54.07331 -43.04326 -38.03477 -52.87490 -52.42492 -66.63732 -65.71595 -71.63714 -75.27078 -74.64900 -71.87780 -79.52616 -79.46420 -75.10981 -77.74379 -99.93232 -99.26922 -90.62491 -95.34042 -97.63502 -107.62181 -110.12551 -102.73687 -102.56298 -109.27234 -112.80604 -117.69972 -119.34752 -125.25806 -119.86381 -117.05523 -115.47197 -117.64815 -122.52523 -121.37632 -125.28742 -116.07160 -131.21321 -120.71519 -121.59044 -121.13709 -134.87539 -132.09032 -133.39822 -128.84319 -126.79138 -125.10627 -130.77730 -127.61748 -129.60219 -132.97856 -122.68289 -119.22540 -121.23553 -113.61604 -99.19737 -103.64097 -108.36044 -102.93304 -106.39372 -118.37926 -130.00591 -128.94392 -124.20586
256.25411 255.49771 229.97140 183.05257 174.81478 187.16766 221.45998 206.30431 192.10348 181.93782 200.89377 241.86729 295.48941 289.14625 261.04218 243.07580 278.19764 295.17908 277.39916 241.18443 232.79199 251.64315 311.42161 319.93485 327.93982 275.44143 149.64352 90.96645 58.77419 31.65471 -2.01419 -11.47069 -16.67569 -4.96496 -9.12908 -21.01481 -27.73112 -31.82925 -28.24015 -18.47936 -9.68564 -15.24568 -10.62209 -20.92856 -12.35828 17.78869 24.83968 45.56262 41.95558 24.63217 10.66637 1.27793 1.90170 -12.19323 -16.81731 -18.48508 -20.54444 -26.75379 -30.74729 -37.73205 -28.27550 -45.83103 -58.27423 -64.02865 -62.97113 -62.53735 -59.04529 -51.34807 -52.59414 -54.49494 -57.81965 -57.66793 -51.93781 -46.76679 -46.78756 -53.46541 -51.11691 -60.98044 -65.13661 -61.08074 -66.23314 -69.18685 -74.49403 -70.49418 -73.58330 -74.57742 -81.16153 -92.67999 -89.32094 -96.01038 -101.32629 -97.47854 -109.31162 -112.77736 -115.88667 -99.94599 -110.74125 -115.49874 -120.38666 -113.57624 -114.88598 -117.26793 -117.37778 -111.95515 -111.12792 -113.00619 -115.45670 -123.90876 -115.53077 -125.68205 -125.86298 -122.44030 -123.58486 -126.10363 -128.50893 -131.55157 -124.43623 -136.38441 -131.15335 -130.50935 -128.40730 -128.49097 -127.44254 -126.37370 -120.30885 -119.37046 -119.96672 -116.23782 -106.31246 -101.50550 -104.94844 -108.43292 -123.50153 -126.48571 -123.42641 -127.24377
259.64708 257.12374 232.39684 181.20708 168.62296 189.23215 205.64457 205.55728 192.41344 176.60477 194.86721 251.25533 293.84473 294.85760 244.49172 225.73917 240.61109 260.81526 264.80142 235.64470 217.21571 234.92613 265.95124 306.00135 335.29361 304.86351 185.48532 83.78857 70.29191 56.58663 37.98304 29.04901 9.15512 5.99549 -13.02229 -11.64788 -27.18339 -14.30073 -32.07277 -14.60344 -7.75091 -8.33292 -23.39997 -31.59245 -37.93798 -7.70365 32.71810 39.26303 41.10010 26.55761 15.12172 -0.04851 13.70227 -3.40264 -11.39135 -19.45229 -28.40506 -34.04890 -29.08902 -21.83095 -28.11741 -41.59379 -50.27554 -50.53460 -61.11007 -51.95433 -61.24137 -66.81625 -58.72725 -63.54214 -74.59965 -57.17221 -61.79632 -52.73071 -57.45113 -63.26082 -56.87489 -59.42925 -64.57647 -72.76729 -68.48767 -75.84918 -75.50175 -78.92180 -72.54124 -74.77935 -85.79093 -86.20724 -92.23115 -90.22492 -104.80460 -108.13729 -99.80201 -102.00581 -111.15880 -103.92276 -104.27655 -110.98747 -117.97337 -116.27855 -109.23049 -114.02078 -113.47486 -105.86734 -117.90689 -111.72479 -122.50883 -122.52395 -124.53773 -126.11504 -125.13548 -124.90952 -123.79279 -126.17591 -128.02064 -127.95405 -121.92800 -129.96930 -128.25019 -139.29202 -130.14572 -140.39848 -130.64316 -129.37294 -119.63652 -123.73748 -116.57927 -122.03663 -109.98490 -106.05441 -111.28853 -125.20826 -117.95194 -128.49601 -136.05035 -127.49272
271.95201 260.97789 266.55680 177.67250 175.06031 186.15884 193.96646 183.29954 179.68079 162.96759 204.01410 224.67983 267.01401 282.09733 237.44949 213.61532 219.72873 233.96287 222.41716 211.04147 169.53075 195.70841 259.73221 290.73884 287.38043 226.06688 209.26578 133.73926 107.59368 74.24509 53.97759 36.01267 27.78226 13.53677 0.81585 -8.80575 2.21197 -9.25416 -21.49506 -20.14979 -5.89864 4.50101 -23.23352 -27.00271 -36.59988 -18.70825 13.27950 23.65567 22.80146 13.10238 -3.04753 1.37260 13.06429 2.29958 -12.79242 -9.12937 -26.02891 -28.79900 -36.24531 -46.01765 -39.46389 -51.57536 -45.62300 -56.11339 -56.69577 -52.52646 -72.34584 -72.89422 -63.75015 -77.55723 -86.36137 -70.67428 -67.94252 -67.50095 -61.31677 -74.53234 -74.52738 -64.50355 -66.88444 -73.59866 -69.39921 -67.53171 -69.19528 -69.71439 -69.36973 -70.98066 -76.91953 -85.32677 -100.35517 -102.24734 -106.93560 -111.90198 -105.57919 -97.36935 -96.25366 -101.45042 -107.41883 -104.86692 -111.06900 -104.76545 -110.20709 -110.09508 -107.51650 -112.45235 -116.69367 -120.72175 -116.08136 -127.21410 -122.41035 -129.45768 -129.97599 -118.80912 -130.16617 -124.56172 -130.04482 -133.61027 -132.98004 -133.24031 -135.40295 -137.95021 -132.63782 -133.26141 -129.40759 -126.13013 -129.33023 -133.59910 -130.14443 -116.17589 -119.54350 -115.22758 -117.30523 -119.18360 -131.68959 -140.27698 -138.67127 -135.40615
277.21811 282.11373 243.78042 200.25495 175.52263 182.47322 170.47382 168.73158 169.94347 173.17809 206.78700 209.15824 257.54707 274.61888 240.61112 206.50094 201.00799 183.57183 189.64965 184.30384 176.43504 190.08773 216.85340 271.15547 239.49691 248.73597 195.10479 168.10233 123.89132 90.70867 62.32994 33.56173 25.84557 14.68668 -3.90877 2.47247 4.16396 4.44778 -20.22452 -28.38990 -19.46028 -9.67320 -15.96634 -26.42651 -53.06751 -22.90375 -16.05674 10.12408 13.80798 -0.90963 -6.49942 3.24946 -0.79254 1.85761 -11.39508 -16.19655 -13.94599 -36.17270 -38.31611 -49.21824 -43.12265 -46.45695 -45.36257 -49.21530 -40.75749 -50.46465 -58.19832 -54.32592 -58.26054 -71.74307 -75.08127 -77.69896 -78.25220 -74.70276 -86.97716 -79.40603 -70.32665 -76.98895 -77.40404 -70.83651 -71.27771 -68.93060 -67.83707 -68.05446 -73.76755 -67.80262 -80.02180 -88.43650 -89.32913 -101.62220 -101.78281 -106.01261 -104.57751 -100.03614 -98.44574 -105.88601 -91.99113 -104.69996 -110.04833 -103.85579 -105.96329 -117.17608 -110.23277 -114.85166 -116.10396 -114.62128 -127.55960 -123.61944 -121.11483 -126.91132 -125.27099 -125.04421 -127.47209 -136.72751 -124.59126 -135.04519 -122.78323 -129.07251 -130.13335 -126.99339 -133.03927 -127.62024 -133.31668 -139.56813 -135.42340 -130.51872 -126.50932 -128.14893 -124.75526 -119.80948 -126.25941 -124.64482 -126.79204 -137.61510 -144.48689 -143.35729
269.28947 270.82073 241.62768 201.16193 184.19560 161.83200 170.45033 162.66786 161.70736 167.55452 220.22841 248.92034 256.81100 267.92792 233.33156 211.80063 179.83402 175.66470 179.85010 180.83604 172.54833 168.63492 205.96624 219.83276 235.08393 254.91457 218.52331 189.34396 132.01739 99.66316 29.88368 28.23516 10.08138 19.15079 12.69202 27.86990 34.17187 18.53341 -21.64275 -34.98412 -34.75089 -25.42922 -19.36857 -33.55308 -42.09472 -34.78105 -29.12894 -15.16998 -17.52837 -12.59313 -17.70864 -7.02465 -1.15480 -3.75545 -8.25920 -16.24373 -22.57143 -30.45315 -27.52692 -30.78103 -44.13007 -40.42053 -26.53841 -36.98502 -35.47853 -38.46467 -60.69441 -48.24990 -47.43613 -58.89101 -64.18154 -61.46654 -70.74414 -77.90680 -82.45340 -81.17981 -81.59723 -74.53491 -83.28015 -80.36021 -80.72010 -81.58427 -67.92697 -69.38967 -69.75590 -70.15330 -78.16968 -83.63778 -87.76624 -99.36026 -104.52721 -104.04089 -102.00267 -98.76612 -92.36417 -95.85589 -103.65638 -104.19975 -101.36528 -109.45518 -111.71739 -106.42438 -123.23731 -116.46921 -113.35458 -120.03229 -119.63883 -123.86804 -130.35602 -123.92814 -126.14296 -125.30961 -128.10527 -129.45860 -133.47657 -131.51958 -138.64646 -132.05218 -138.74250 -136.28049 -132.80902 -129.38457 -133.72856 -129.70749 -140.74187 -134.59315 -130.76681 -127.99295 -133.55651 -128.59244 -121.23880 -138.70034 -136.51807 -146.08933 -149.47845 -146.65880
271.74649 259.42233 245.25208 218.57199 199.74779 183.85375 160.25353 168.30378 166.13969 184.67165 204.28390 222.23029 245.98931 253.78884 226.28629 179.73947 183.01499 171.73040 173.79192 175.47292 169.75913 184.99782 192.90864 213.72702 234.34112 250.24259 234.89671 191.76747 132.53537 94.31931 44.61230 16.54583 6.03465 24.13278 60.95962 63.43317 53.05950 31.95232 3.80476 -26.14816 -26.05058 -17.51621 -25.91706 -31.52617 -62.62393 -44.13607 -43.19687 -49.36977 -48.02853 -39.29524 -23.48026 -21.37942 -4.45835 -23.50121 -24.72465 -29.11604 -25.49607 -19.35848 -16.29070 -27.52648 -26.55415 -36.23209 -23.45435 -33.68954 -36.33576 -44.03222 -54.12249 -47.22164 -47.18004 -50.86138 -54.03026 -59.24323 -68.74593 -88.46467 -87.22499 -91.03626 -81.90428 -88.57692 -83.54942 -96.07109 -92.90089 -81.25851 -71.97732 -78.58754 -80.62447 -85.46525 -88.90714 -89.33168 -92.92834 -100.24365 -97.44391 -99.89358 -97.40381 -93.03220 -90.50397 -92.10548 -98.07876 -106.87285 -104.94364 -107.85917 -110.78445 -106.37798 -110.06590 -116.68364 -123.21433 -118.09022 -130.04176 -132.88027 -138.39690 -138.64759 -131.11836 -128.46498 -123.98429 -133.71647 -131.44918 -132.10563 -130.89664 -136.83948 -133.24167 -138.01121 -136.06934 -143.63507 -145.36859 -143.06370 -135.46964 -127.52374 -132.57130 -133.81141 -146.25988 -134.63837 -130.48914 -146.65613 -135.86303 -151.10248 -147.86412 -146.30962
241.64468 244.82828 238.12864 200.55988 197.67066 183.79720 169.98430 164.06312 175.04508 192.60146 199.24076 216.74978 240.90729 234.50445 208.68870 208.46056 188.61486 165.18593 163.22747 157.14096 172.89385 183.85233 196.00787 230.04519 234.85885 261.41870 238.74871 170.56557 146.78786 102.89951 49.09705 9.25633 16.85466 27.12423 84.06387 93.31089 66.09893 57.32525 17.30219 -3.31565 3.64369 -8.66252 -15.45092 -31.62710 -49.48277 -48.26746 -51.39001 -51.74661 -56.58728 -48.08571 -47.41220 -16.11135 -31.40785 -29.37296 -44.74676 -43.15970 -25.12670 -13.20736 -17.32755 -14.40883 -22.43880 -18.74806 -26.46601 -24.88284 -31.09261 -41.48488 -34.72598 -38.39260 -41.90235 -57.08474 -50.03206 -63.14645 -59.93690 -79.47631 -78.76489 -80.12889 -74.01542 -73.19057 -89.34168 -94.33497 -99.03168 -90.15856 -92.47907 -80.24652 -83.75299 -85.04923 -95.69714 -88.92003 -105.21600 -102.13577 -97.99146 -102.86398 -87.52098 -88.80605 -95.40568 -100.94783 -100.34622 -99.59319 -113.60234 -110.39567 -110.32155 -109.81177 -119.21928 -118.97318 -125.07697 -129.86200 -118.54567 -132.31787 -129.24777 -134.76055 -125.53189 -130.33327 -131.41088 -126.42007 -129.94190 -131.65366 -130.30859 -138.50409 -137.49544 -136.02008 -139.10214 -146.13459 -147.88191 -142.65430 -137.36621 -140.98533 -137.00396 -141.12008 -143.64955 -144.21111 -146.56647 -131.66668 -144.23640 -153.34250 -159.56439 -155.96436
226.58385 224.84904 215.79432 194.97299 194.98017 178.39660 166.45866 167.25920 162.81197 163.32420 177.94917 206.84220 219.35252 225.12138 225.32344 210.39396 196.50265 186.54841 156.22218 164.01892 169.94989 176.79827 199.43116 198.38098 237.35438 263.48839 245.73710 188.80183 142.15050 82.69900 55.75409 38.52946 67.72761 101.02164 138.90033 129.84716 111.14874 71.65567 32.16812 -2.29835 9.68894 -8.46708 -16.18380 -34.28787 -36.27134 -44.14880 -34.61255 -50.60560 -54.33498 -54.34619 -66.67244 -58.97384 -34.36880 -50.73480 -54.02427 -47.41907 -41.91473 -20.91714 -21.75369 -12.53835 -15.21599 -16.47968 -19.54685 -25.23145 -26.32722 -24.09924 -31.17708 -38.27159 -35.01815 -35.63364 -41.43397 -54.16482 -59.45105 -78.78317 -73.79207 -65.86357 -64.26853 -56.51144 -67.87717 -92.30383 -85.00483 -91.48636 -95.36029 -90.64204 -93.52757 -101.06374 -96.28029 -102.21341 -96.96940 -97.45010 -97.91840 -83.32658 -94.59975 -88.86207 -95.48521 -91.18641 -97.34091 -96.22314 -103.75731 -106.15717 -110.93237 -114.75393 -110.37483 -115.73084 -121.00568 -126.32238 -130.87442 -129.09713 -125.28978 -141.48008 -128.39249 -131.96184 -138.92531 -124.98022 -135.32475 -136.28012 -141.69361 -138.25065 -138.35093 -138.97865 -138.22678 -146.10902 -144.12209 -140.00765 -139.52544 -148.78683 -141.31949 -141.87449 -148.76672 -156.25346 -155.16106 -156.08493 -147.95013 -160.02245 -171.40099 -160.19845
230.50960 234.39913 208.10628 176.95929 184.29980 174.45326 169.45342 157.71665 164.15993 158.88812 178.23337 180.74168 180.65182 195.24211 207.96862 193.39848 193.88352 183.71495 163.76030 163.36466 163.20502 198.11349 205.93458 230.11972 239.53371 253.87259 242.70439 200.49536 177.72530 109.15989 60.22438 57.41499 71.35218 99.67486 143.58232 136.91859 135.22149 73.77128 33.47387 30.18210 20.45055 -6.83546 -15.86022 -29.75190 -40.71096 -31.64535 -20.62613 -18.96871 -38.32798 -50.87205 -61.50378 -56.68905 -48.79235 -50.78134 -61.11581 -62.82005 -51.82849 -41.17200 -28.85638 -24.52553 -23.65901 -20.44393 -10.99055 -34.48381 -31.28745 -33.25125 -32.54039 -33.20550 -41.12727 -50.26864 -44.77972 -53.74328 -58.92869 -55.96554 -59.29616 -61.31558 -55.54749 -58.65306 -60.27957 -79.52891 -80.77840 -78.57107 -86.29658 -95.48416 -97.69325 -101.61419 -97.15076 -91.59430 -92.88333 -91.58721 -88.57634 -89.42962 -85.86145 -92.16362 -96.26822 -98.78609 -102.39405 -101.99353 -102.92042 -104.39962 -116.61427 -119.61399 -119.62973 -118.61891 -121.21514 -130.66889 -131.18611 -131.10339 -130.58194 -136.19425 -132.48313 -143.40658 -142.25959 -143.14363 -143.16206 -135.15751 -140.91872 -140.70276 -137.06507 -137.04782 -141.70060 -137.44055 -142.54429 -137.33858 -141.70759 -140.29180 -141.12331 -152.08325 -148.40167 -157.88031 -155.49639 -164.50023 -157.51982 -175.52056 -172.35425 -172.61304
212.59531 211.15211 219.22450 171.73502 171.46845 164.84571 155.51221 161.06788 158.51607 164.20640 162.97947 182.93492 190.64560 187.91354 207.25015 205.37167 184.22417 169.93811 160.57077 159.51748 181.44746 207.42390 234.06950 245.96208 252.31576 258.16669 240.70820 243.95056 189.85203 142.17462 121.25593 120.33867 134.55958 114.24358 131.87956 177.38624 158.26713 119.54756 77.08902 44.50628 22.46979 7.59594 -11.15770 -22.53925 -30.05055 -3.07317 -1.01525 -13.15892 -20.76697 -36.75953 -45.17614 -43.59744 -22.75972 -30.83058 -53.51569 -56.35094 -75.88209 -46.65788 -44.57226 -23.88639 -23.31917 -18.70993 -32.43438 -38.15260 -36.80697 -27.91894 -38.43268 -42.45880 -42.94804 -51.37631 -42.65463 -47.40104 -55.61173 -52.76162 -46.86082 -53.17317 -50.78634 -60.70825 -60.92244 -68.77328 -69.64899 -78.13114 -78.77873 -77.21404 -82.61086 -82.36825 -84.63548 -80.58673 -90.98160 -89.03582 -88.05736 -89.66032 -88.28791 -97.79902 -99.14646 -98.24547 -106.14960 -101.79761 -106.87531 -111.59869 -114.12600 -113.49099 -124.43482 -121.99852 -131.28653 -131.81743 -134.51727 -131.39012 -134.74551 -139.78893 -129.41266 -144.70292 -140.10947 -140.68815 -133.24610 -139.23306 -141.49354 -145.77283 -141.21537 -135.31654 -138.19310 -142.47663 -151.07623 -148.99627 -155.28960 -146.18632 -158.50709 -151.89241 -158.34998 -161.19695 -169.54202 -164.65048 -165.71124 -186.37624 -176.30087 -174.59800
227.45326 221.77110 194.29848 178.79630 169.75035 167.82180 163.89502 163.00618 154.69310 163.33829 169.40609 167.80862 179.93093 185.74988 185.44415 182.27921 176.26167 174.28343 164.84051 164.27455 167.01603 197.35555 228.48356 241.68533 249.89770 261.89170 259.87066 246.42788 240.62886 180.16002 178.54384 159.47244 207.90918 184.96927 172.39899 186.88243 174.69741 134.16255 101.27651 80.41196 44.30676 4.91826 -18.08434 -26.87874 -5.16329 8.90321 12.72380 -12.96694 -36.94872 -27.04752 -37.57428 -19.03470 -20.86773 -21.33708 -28.95677 -54.03330 -74.33835 -64.26814 -68.14069 -43.07262 -31.52134 -35.22368 -40.37808 -61.93540 -52.14229 -42.98607 -38.95765 -50.76228 -56.50418 -53.84414 -55.27871 -56.24918 -51.10452 -46.27853 -54.41538 -59.33679 -60.22675 -58.96887 -64.40100 -68.25079 -74.45787 -80.05081 -77.64727 -78.93666 -78.24123 -87.87098 -85.54717 -82.14713 -77.81252 -80.54965 -89.22246 -90.01044 -89.94513 -98.24049 -109.61399 -103.69273 -108.49885 -102.21540 -112.14662 -105.28537 -115.23632 -118.66654 -112.26207 -114.14759 -121.92655 -135.36941 -135.48650 -129.77266 -134.55790 -134.91362 -138.25441 -128.06749 -141.00044 -136.04391 -142.80851 -138.47962 -143.75034 -139.91653 -141.51956 -140.30597 -147.38595 -139.38797 -142.57622 -149.04660 -144.80231 -154.43715 -147.86071 -151.83498 -152.75051 -159.37661 -169.79920 -179.37245 -177.32337 -184.08183 -211.07505 -194.75862
238.86724 243.26771 201.18863 178.35189 180.53686 163.44036 162.50897 156.53533 153.92924 163.49731 167.63302 174.51559 171.10653 177.69830 164.31978 173.67424 176.17114 157.51100 160.08995 167.71897 166.63057 189.85186 211.46988 228.03828 250.41371 246.33279 253.30526 237.68563 231.26045 234.05141 245.01417 251.24699 233.33400 242.29819 225.32038 221.82604 195.09501 167.81493 144.97794 81.40373 44.81384 11.99416 -3.79439 -3.59181 4.98925 33.57546 17.02322 -5.39606 -14.66625 -30.82786 -11.29487 -8.70616 -6.23025 -25.35454 -22.46812 -54.08169 -72.57320 -75.62339 -73.96397 -53.99887 -32.76927 -38.55453 -59.68192 -64.29900 -65.61446 -49.80220 -47.44069 -57.32271 -53.78814 -77.58368 -65.83403 -63.41298 -59.93479 -61.22453 -59.21142 -65.64623 -62.64734 -66.34896 -68.12092 -62.67059 -69.10455 -80.89783 -71.20117 -80.95063 -75.42012 -80.73273 -78.18163 -76.93200 -91.06564 -80.88191 -88.32901 -96.71622 -96.54136 -107.86772 -114.24278 -109.20185 -102.57474 -109.74953 -115.11488 -111.83764 -114.52081 -122.40576 -120.94376 -120.25475 -125.88006 -137.21132 -136.09692 -138.43229 -135.20374 -131.21219 -135.16534 -144.84571 -139.64280 -144.37227 -136.65070 -141.79687 -146.39869 -148.89763 -147.30045 -145.73292 -139.85659 -141.52957 -149.19580 -148.57031 -155.02998 -156.55487 -159.73963 -151.57339 -163.28349 -169.60131 -170.04094 -198.48376 -210.05611 -218.76183 -254.88138 -261.28292
286.58081 279.15193 259.71034 193.51181 189.61587 179.29170 166.88833 160.66397 155.92709 165.76543 162.92465 159.38372 159.13320 166.30746 167.00356 172.00813 165.40583 162.79953 163.26008 161.11525 176.18653 180.07719 199.91434 213.03923 239.63677 233.76150 253.20238 241.97412 241.30661 243.67795 245.36472 248.92003 259.52984 257.56544 247.79909 225.49828 195.01473 177.31954 160.66900 100.42702 58.21700 21.95445 26.51772 30.92947 41.66646 64.30398 28.65307 -1.36682 -12.22918 -6.15015 10.40979 10.43993 -6.76548 -6.62742 -34.08671 -44.17950 -50.60792 -76.50763 -72.10365 -64.79726 -45.76145 -45.59901 -52.77305 -81.20103 -82.11537 -73.17054 -62.69267 -55.67728 -58.16652 -74.38148 -79.93023 -74.38654 -77.92398 -67.63755 -71.89552 -69.97339 -76.92893 -82.55441 -74.20504 -81.87756 -77.44442 -78.95482 -80.80435 -81.16754 -86.42374 -82.42841 -85.49732 -81.47620 -90.39395 -83.67465 -93.79587 -94.11657 -106.24921 -101.69203 -93.92657 -97.96318 -97.28256 -103.05774 -116.61581 -124.78688 -119.42874 -117.79175 -131.65092 -132.05666 -134.11854 -129.29761 -127.95525 -148.81069 -136.44318 -134.17598 -135.94765 -138.67381 -148.30821 -141.35588 -149.25292 -146.89881 -155.54191 -146.55443 -147.66803 -150.47381 -150.90789 -145.74869 -148.44690 -153.55655 -159.07580 -155.68587 -163.50878 -170.79310 -172.88352 -205.25077 -237.43142 -262.33092 -268.95825 -311.46087 -307.50428 -305.27348
291.54765 289.13254 257.88307 196.01542 188.70848 175.15100 173.02557 164.03543 165.10757 157.69751 169.08056 163.33128 161.35701 164.65130 168.83714 157.93749 158.51397 156.17339 159.84029 162.21239 172.55928 170.80662 181.15251 202.34858 214.83687 237.39421 239.69282 245.37531 259.26824 264.79178 265.67994 265.79293 250.30307 249.46850 223.95849 193.31980 188.01883 171.67835 143.86314 92.27991 65.31080 55.33087 87.29821 72.21359 72.14747 61.23832 33.55500 22.25420 35.19105 37.67177 16.19080 9.78014 -12.07620 -25.02023 -39.66916 -38.40050 -41.36139 -50.53529 -73.74174 -72.74889 -44.52069 -53.64487 -69.17975 -80.02895 -80.96918 -76.16394 -81.98338 -63.84124 -57.59774 -74.69731 -82.66467 -84.79798 -86.10135 -84.87676 -88.54123 -78.09343 -83.34383 -80.47769 -87.30861 -83.34297 -82.99478 -81.91756 -88.34523 -80.22423 -85.67353 -84.78808 -86.81675 -82.52626 -98.53826 -95.09078 -98.73735 -91.09529 -95.16454 -92.62522 -92.54956 -91.87766 -104.06817 -112.73559 -108.68649 -122.92310 -119.33349 -123.59833 -130.56652 -122.38317 -128.57551 -125.12614 -138.11231 -130.44187 -130.54121 -133.80762 -141.71385 -147.56451 -146.04479 -146.77343 -153.09582 -154.35426 -144.77680 -147.01387 -150.75759 -142.73335 -152.70353 -154.25266 -154.55730 -151.67702 -150.54865 -158.15358 -164.65292 -171.60038 -217.68753 -269.05981 -283.39636 -315.12378 -311.15590 -322.44149 -345.58755 -349.51791
