138.90415 130.71492 66.81315 -25.45873 -60.23931 -94.83813 -85.15475 -68.87331 -55.16099 -62.07075 -77.09683 -94.07979 -110.15343 -118.03627 -122.86746 -130.24185 -146.64923 -151.47409 -149.11376 -133.96820 -116.75156 -110.92988 -117.32298 -127.09479 -128.86733 -114.49809 -105.92938 -106.91347 -118.43901 -131.25898 -144.24059 -141.62669 -151.79710 -154.00409 -148.24732 -147.08349 -147.24417 -141.62476 -145.37404 -154.36701 -148.19223 -148.53973 -157.85005 -153.95182 -164.15057 -168.17023 -169.84700 -169.85464 -161.62217 -160.11216 -161.66596 -163.73723 -161.45456 -159.34336 -161.15107 -160.07364 -164.49457 -171.49269 -167.36285 -169.14909 -171.81519 -169.10156 -163.28378 -167.47051 -172.33821 -165.76305 -167.84784 -168.83730 -173.37230 -171.39323 -170.48920 -175.52631 -175.02173 -175.76714 -170.33963 -170.55430 -171.71156 -170.38154 -172.28783 -177.00010 -177.58459 -181.01752 -185.90392 -183.92050 -174.33557 -176.63614 -178.80032 -179.60267 -189.63863 -189.57790 -182.48235 -177.06795 -179.66033 -185.11808 -193.80601 -207.44241 -229.92649 -265.10017 -258.91853 -533.47361 -334.42568 -310.81431 -507.29477 -927.81625 -1197.95773 -1536.71373 -1687.44699 -1853.89796 -1868.26826 -1886.39965 -1902.57158 -1905.89843 -1915.84602 -1899.26445 -1907.40035 -1921.05793 -1932.42358 -1944.19521 -1943.02354 -1946.76654 -1968.75343 -1974.86350 -1981.19912 -1991.74156 -1997.77260 -1997.34106 -2009.56116 -2022.40069 -2034.79233 -2032.61452 -2065.82776 -2083.82397 -2111.26947 -2162.03425 -2156.70306 -2162.36925
286.07924 287.36227 174.77905 -0.46202 -6.98096 -66.65921 -80.07585 -75.65259 -49.97271 -57.25288 -71.55857 -93.17979 -93.18110 -95.88057 -95.51191 -121.53489 -129.68501 -145.24698 -147.37978 -126.48869 -110.71194 -90.59331 -113.31089 -121.94733 -119.25421 -107.62470 -100.35044 -103.88764 -120.11443 -127.88623 -131.07447 -132.06041 -138.32476 -141.60477 -141.63378 -136.01666 -135.08091 -138.01322 -136.74690 -142.72960 -135.56042 -143.39084 -144.83105 -157.67745 -161.51715 -165.79331 -166.07147 -169.88278 -160.41852 -159.62047 -152.57776 -160.73814 -159.58991 -157.05517 -158.17171 -161.72431 -161.26705 -172.16397 -173.74799 -177.48820 -175.33208 -168.54180 -172.79041 -173.09555 -169.99418 -170.96873 -171.98152 -169.50757 -171.60829 -170.03229 -175.52011 -171.23630 -171.14918 -171.36385 -164.74700 -167.53965 -171.55406 -174.43007 -171.17430 -175.03980 -178.38344 -178.99809 -174.67398 -173.37758 -173.86430 -179.52710 -177.24726 -175.30892 -176.82115 -181.30782 -177.13122 -172.82698 -179.00721 -174.92580 -179.97519 -198.67120 -198.81464 -204.43184 -245.51395 -240.30127 -273.24562 -297.80805 -462.55735 -692.79274 -1115.72885 -1347.95630 -1482.99776 -1727.27510 -1870.72417 -1911.06299 -1919.53902 -1920.52629 -1929.60778 -1927.17131 -1934.56468 -1930.40086 -1935.71449 -1944.69074 -1963.82190 -1972.35781 -1983.50707 -1976.56097 -1984.69804 -1988.48375 -1992.36883 -2006.44008 -2011.92159 -2011.47351 -2027.05211 -2034.51866 -2051.71449 -2066.74003 -2088.70648 -2122.65284 -2137.49802 -2132.88865
349.44322 353.17507 229.58080 79.97683 3.83996 -43.51079 -68.10560 -26.72642 -48.76855 -17.16680 -31.22420 -47.45078 -56.03124 -77.80323 -90.38734 -109.33577 -123.02521 -141.59040 -138.82853 -126.13678 -104.99160 -89.57778 -95.12875 -116.14475 -112.98486 -105.78791 -92.31721 -107.82537 -117.49215 -120.52511 -121.63984 -122.74195 -127.66983 -141.67348 -135.75637 -130.23924 -133.99622 -132.48464 -134.63010 -138.19484 -139.31400 -141.52735 -144.74332 -151.26064 -157.23427 -165.12361 -166.18913 -163.13918 -157.59784 -153.52011 -148.20190 -150.85874 -149.95232 -156.45726 -169.20186 -159.44035 -172.29714 -168.67271 -175.08473 -168.64445 -175.30726 -171.88393 -173.45439 -170.74404 -171.47973 -171.99446 -177.84005 -171.51917 -174.90326 -174.04177 -175.24304 -172.04522 -174.95651 -169.04988 -171.40886 -167.81822 -168.47738 -170.79572 -172.59898 -177.90629 -172.99012 -171.68245 -170.05090 -175.79881 -173.92613 -170.88466 -171.45136 -181.60684 -177.49358 -177.25426 -177.90324 -176.61127 -176.52565 -175.88098 -177.50397 -178.79574 -188.56554 -191.66911 -191.41439 -195.56321 -195.79181 -231.77638 -264.64431 -559.34272 -881.59470 -994.99845 -1401.06306 -1646.01786 -1861.88125 -1913.28033 -1931.83838 -1942.01469 -1943.32913 -1947.85813 -1938.13664 -1953.57613 -1957.39967 -1960.70232 -1981.82491 -1982.67859 -1993.31795 -1997.18005 -2005.45116 -1998.75059 -2007.15521 -2006.70570 -2008.92938 -2017.01709 -2026.73967 -2031.92645 -2043.01795 -2065.24936 -2077.44957 -2114.82243 -2119.23772 -2115.36462
463.92675 461.95515 426.23933 39.18872 22.23431 -35.34360 -25.31702 12.01155 -6.51233 -2.42840 -7.54055 -10.41759 -40.05565 -82.19995 -94.79799 -111.03176 -114.61098 -123.29249 -142.58305 -129.61246 -96.75344 -84.19673 -97.54592 -96.57530 -91.82283 -93.38152 -89.34617 -106.09821 -110.56956 -111.74939 -109.59921 -105.11859 -119.85951 -127.10790 -128.93845 -127.51123 -127.26893 -136.39519 -140.33852 -144.41321 -141.02101 -146.57213 -147.84262 -154.20802 -166.94806 -170.11590 -169.27334 -158.71285 -155.44712 -146.48572 -152.23835 -145.84591 -152.15540 -158.28532 -173.85722 -173.07970 -169.12988 -172.50855 -175.04576 -172.00277 -170.62843 -171.41089 -172.06252 -174.56780 -169.73982 -169.67245 -175.52676 -175.06215 -173.53596 -176.41275 -176.51403 -174.19295 -167.19123 -170.09047 -169.14481 -165.31291 -165.81246 -172.29300 -172.71513 -176.11042 -173.13077 -173.78362 -174.99242 -174.53755 -175.94100 -174.63669 -172.12010 -173.93335 -171.49753 -175.10319 -176.09585 -175.02239 -173.99817 -172.87379 -176.75030 -179.63514 -178.78492 -180.21229 -183.81204 -188.42634 -198.34149 -192.74096 -237.13430 -294.80780 -519.42093 -914.62898 -1272.35530 -1493.24519 -1884.15088 -1915.87233 -1956.64367 -1961.77092 -1967.92240 -1960.80030 -1956.97238 -1965.55928 -1978.34145 -1978.86204 -1987.28406 -1992.09081 -2009.07385 -2009.53665 -2020.00005 -2025.92786 -2015.38139 -2009.59545 -2014.04136 -2016.98502 -2024.49738 -2032.33779 -2043.26783 -2065.74406 -2071.67049 -2092.34508 -2110.79389 -2102.26827
439.68301 446.79251 330.84797 138.79802 30.09027 -0.46761 17.58647 62.21086 63.35708 21.49328 2.08717 -3.05734 -33.10046 -80.18888 -90.89398 -88.07795 -96.87816 -106.24261 -122.30366 -116.95505 -100.59399 -87.24000 -83.27040 -84.73954 -82.79729 -75.08110 -90.04089 -101.46013 -105.29708 -104.56093 -95.46138 -103.26797 -109.43818 -128.53411 -122.30574 -134.39724 -135.46488 -147.67110 -154.21188 -145.60332 -142.39818 -149.35598 -150.89049 -161.33536 -172.19496 -172.57208 -170.77297 -156.68846 -151.87675 -149.28314 -147.99876 -155.12551 -154.00099 -166.29610 -166.60920 -171.05937 -173.82422 -167.86798 -164.67162 -169.25098 -171.89067 -174.97161 -171.35044 -169.62427 -169.01040 -174.75127 -178.79235 -172.61384 -173.16247 -173.92685 -171.82231 -168.63680 -170.28468 -163.10633 -169.32085 -163.13483 -169.81850 -175.46433 -171.85533 -172.52397 -170.15733 -175.36765 -176.49739 -175.46403 -177.69443 -182.55472 -174.76004 -178.75044 -173.00759 -176.92496 -173.76013 -174.11558 -177.99164 -178.06477 -176.19913 -174.13046 -179.42643 -176.37685 -179.59528 -183.95178 -183.27994 -190.13924 -219.97244 -247.91460 -454.95868 -823.64501 -1204.55455 -1331.20180 -1658.54820 -1933.85145 -1960.90028 -1963.60400 -1967.52003 -1971.49325 -1966.36896 -1984.59516 -1991.26943 -1990.02805 -2008.09937 -2010.16916 -2020.81464 -2027.39546 -2034.74572 -2029.21910 -2027.53430 -2022.52140 -2018.29297 -2025.57802 -2019.36897 -2036.09405 -2043.22454 -2055.42973 -2060.26293 -2082.45062 -2095.53489 -2100.03436
400.74992 403.37557 302.66358 165.15145 122.32586 65.92669 55.81832 104.58401 94.45908 91.58031 54.27019 -6.08130 -49.77091 -70.00584 -64.49916 -78.40463 -84.48573 -103.40139 -120.70124 -113.60319 -84.58024 -72.96891 -68.58592 -68.05424 -65.57012 -74.53678 -82.92485 -88.31145 -91.56011 -94.36776 -95.41468 -97.87246 -111.15556 -126.02855 -143.04280 -136.10878 -152.10210 -156.80534 -158.14203 -141.75035 -149.01161 -156.59607 -166.39982 -170.05503 -173.01852 -168.50804 -170.36222 -156.11898 -151.82293 -144.95531 -145.03267 -155.36717 -159.70822 -163.65570 -167.67988 -167.13961 -162.72689 -158.97200 -160.36285 -165.03700 -174.30178 -172.38376 -179.44051 -171.40240 -173.59271 -173.07745 -173.82637 -170.97116 -173.22522 -173.84113 -167.55454 -166.58904 -165.62453 -161.41081 -163.98923 -170.05270 -171.98890 -169.75758 -173.63862 -170.96479 -171.83269 -178.47923 -172.73060 -175.31132 -172.37675 -173.85010 -177.97783 -175.41378 -173.92317 -178.61350 -176.32826 -177.44926 -173.77602 -173.33558 -177.86508 -175.50083 -176.20355 -178.29719 -177.21689 -175.95293 -178.80487 -186.54361 -194.26254 -208.78160 -310.04327 -693.79155 -928.79639 -1444.91753 -1643.56325 -1932.64023 -1960.84908 -1970.23992 -1983.00515 -1981.42965 -1995.37184 -2003.10662 -2004.27429 -2006.65479 -2013.36202 -2026.79561 -2037.06058 -2034.89477 -2042.95219 -2036.88388 -2034.04340 -2030.63058 -2027.16326 -2030.99647 -2029.95204 -2034.47935 -2040.75895 -2052.05432 -2058.25760 -2085.61799 -2090.18315 -2087.53342
401.30817 396.47769 324.35854 206.70853 138.53054 137.88704 136.11874 113.54296 134.53928 108.96597 79.17431 2.15329 -32.31621 -47.48423 -43.71926 -62.31211 -72.57541 -109.80501 -115.84844 -93.43283 -78.02556 -63.08154 -47.98053 -44.62964 -58.06864 -72.75046 -76.55171 -78.02915 -78.61565 -85.82630 -88.53054 -106.50640 -121.89524 -142.30128 -147.16755 -155.62178 -158.28738 -168.41101 -158.23098 -154.98850 -154.89172 -166.18247 -172.67722 -167.62695 -177.21847 -173.14168 -162.75774 -148.78350 -151.01782 -145.25602 -147.57968 -153.30532 -162.99810 -167.50552 -158.64654 -155.08613 -154.17785 -150.81392 -159.23861 -157.41597 -168.02128 -173.81328 -170.59455 -168.59124 -167.20819 -170.59811 -168.45935 -169.76286 -162.70698 -168.11970 -169.28839 -161.05103 -164.37754 -161.30835 -164.23477 -162.17710 -170.04938 -176.38701 -170.70013 -169.40814 -175.11916 -172.39383 -175.37278 -173.58604 -174.16580 -172.38052 -176.32355 -175.32933 -177.82037 -174.83620 -172.21416 -172.45751 -174.71247 -176.90195 -176.91428 -175.99575 -175.90951 -170.96273 -177.59302 -176.89157 -176.88491 -181.84896 -194.14987 -205.11648 -227.28359 -472.23825 -836.81979 -1328.81690 -1696.98408 -1898.73938 -1938.54055 -1970.55590 -1990.59450 -1991.73835 -1997.98176 -2008.12550 -2010.32956 -2012.70325 -2037.90230 -2042.22581 -2036.85071 -2039.79929 -2045.27796 -2041.50389 -2031.03468 -2032.95361 -2032.28926 -2031.69196 -2034.88397 -2039.50192 -2043.09445 -2054.12725 -2059.85030 -2076.51211 -2085.36195 -2084.01294
397.24514 390.87990 320.82417 210.07053 173.33217 167.61955 171.72519 159.93339 162.77578 118.84881 69.77211 41.63599 -17.77180 -29.15510 -48.81550 -73.91087 -85.76072 -105.21328 -99.46890 -67.64235 -51.50628 -55.40367 -50.17783 -56.01344 -66.30895 -77.98308 -81.29956 -76.09311 -77.71349 -81.35806 -87.50138 -95.90814 -125.92711 -146.99336 -162.90259 -158.12775 -161.17975 -163.76273 -156.14041 -156.57925 -159.65844 -166.43552 -171.06731 -170.94359 -177.87243 -171.53355 -163.84970 -146.87031 -139.72194 -146.85459 -145.13960 -146.93825 -156.95065 -153.61507 -148.59570 -145.19004 -146.33957 -143.32614 -154.30638 -157.53377 -163.96387 -171.64518 -173.95447 -168.46756 -162.40464 -168.85339 -170.53404 -168.54706 -165.57885 -164.24534 -158.77771 -158.37045 -163.17431 -170.42846 -171.05706 -171.88186 -172.49724 -176.63206 -168.84817 -171.24351 -171.68117 -178.50133 -172.86539 -174.11788 -172.64527 -176.15086 -175.53692 -171.66025 -173.12405 -173.52190 -173.33899 -176.86157 -174.39078 -179.33255 -180.22582 -177.13379 -172.96916 -173.55550 -173.30939 -175.99450 -176.75487 -177.88276 -184.93677 -202.05139 -225.16203 -422.65572 -794.22601 -1113.39266 -1628.87118 -1890.10227 -1917.84514 -1962.97650 -1976.78038 -1992.69958 -2004.11490 -2008.64366 -2021.22351 -2031.09225 -2033.38554 -2036.11999 -2043.52625 -2046.50151 -2045.81199 -2041.01071 -2036.64799 -2034.82146 -2038.56135 -2034.87858 -2035.75458 -2029.83231 -2046.12672 -2049.33575 -2061.14730 -2073.80629 -2080.95998 -2083.80608
352.11967 356.95326 356.88941 139.78869 140.49676 175.88699 177.67784 184.92865 159.45109 135.15687 115.54208 69.96509 26.43529 -27.53851 -55.74368 -77.43194 -88.85140 -96.49061 -81.93893 -56.94579 -39.35367 -58.87023 -53.74858 -62.37359 -79.49225 -87.63543 -80.04777 -80.77620 -84.88595 -81.60888 -88.50564 -101.33907 -129.78793 -137.10215 -154.92216 -160.48854 -162.29855 -162.22011 -162.80156 -162.65611 -159.58293 -166.46399 -174.93345 -174.04641 -175.69042 -168.43818 -158.50258 -152.28125 -138.33892 -133.98486 -133.82215 -142.69522 -150.13576 -149.23379 -145.30576 -143.46894 -146.15893 -148.61917 -153.07016 -158.05396 -163.73170 -167.22613 -169.07053 -169.64139 -165.82651 -166.85399 -165.94299 -165.05730 -165.19212 -161.26482 -154.39163 -158.88025 -159.98144 -167.66738 -166.63052 -166.15795 -179.65916 -170.92736 -174.96462 -171.72570 -174.93751 -178.70133 -176.82840 -172.05131 -171.48835 -175.73078 -178.20152 -170.79605 -171.75778 -176.93675 -178.87026 -170.13953 -174.94023 -174.81352 -172.08335 -175.20218 -175.44702 -173.04480 -175.92916 -172.94215 -175.37309 -182.31109 -180.47617 -200.71871 -226.84387 -390.35243 -670.20088 -1147.71178 -1314.63255 -1693.97737 -1913.30499 -1934.08999 -1973.96816 -1993.00497 -2001.65815 -2015.64750 -2021.64557 -2024.45650 -2039.18316 -2042.09935 -2051.94390 -2049.82115 -2049.21746 -2040.95153 -2040.55202 -2039.11650 -2032.26846 -2031.49643 -2032.74523 -2041.66851 -2050.60729 -2050.53850 -2059.44947 -2085.92077 -2084.82657 -2083.52020
329.42184 326.93272 252.87382 156.45578 126.59705 158.13944 174.12314 169.83376 165.01320 154.20812 147.98681 117.68216 28.35252 -32.13430 -52.65287 -70.90543 -86.59718 -79.44968 -50.12360 -41.04569 -45.35101 -53.05473 -71.81042 -87.81657 -96.44434 -104.31712 -92.12215 -88.06457 -95.08498 -98.00133 -108.40571 -108.80403 -131.52514 -140.73676 -155.96491 -158.28809 -161.62703 -168.49983 -164.07299 -166.39918 -166.70132 -168.11578 -171.88651 -168.73551 -172.67735 -165.64607 -156.21027 -148.82940 -135.41553 -120.27584 -129.03673 -138.85032 -143.59060 -143.87859 -145.70702 -145.27446 -155.32306 -148.53237 -156.64082 -156.67690 -163.12688 -170.68920 -166.40912 -161.30604 -160.57120 -162.09764 -157.97822 -158.64021 -160.38469 -159.20154 -157.38077 -155.36758 -166.11525 -167.10580 -166.86872 -165.88099 -170.68836 -169.09563 -175.48694 -173.65571 -173.78657 -172.33131 -178.18477 -177.25485 -177.36317 -171.61747 -177.46993 -174.39126 -172.23417 -173.61821 -172.01032 -172.40323 -170.57725 -176.72503 -173.33398 -175.12915 -175.20058 -174.54428 -176.07353 -174.04753 -175.27400 -178.44680 -180.46578 -194.16836 -215.21588 -394.65444 -511.21757 -858.16218 -1229.41265 -1559.17267 -1733.77300 -1931.41672 -1945.74577 -1975.74038 -1991.82930 -2002.79203 -2018.41905 -2027.04827 -2033.08774 -2042.96011 -2046.05570 -2051.10252 -2046.86530 -2050.46507 -2042.80476 -2040.77431 -2037.42076 -2031.48294 -2031.76490 -2040.19958 -2045.42547 -2054.26280 -2066.80811 -2070.80807 -2081.34039 -2084.42264
326.86602 330.57863 223.33835 168.01860 86.20278 67.75789 115.01225 127.74286 154.24301 142.22115 142.23985 96.78008 48.55776 -30.27477 -32.78789 -57.79801 -56.51581 -44.79811 -32.73037 -50.61110 -47.20925 -61.17079 -74.89426 -99.99024 -117.45967 -117.33473 -114.37606 -102.20260 -107.28877 -112.07040 -125.61779 -122.08190 -131.37063 -148.60025 -151.53036 -158.66354 -160.97818 -166.54399 -155.73687 -154.81023 -158.55444 -163.81242 -167.37652 -163.20611 -165.45915 -150.09751 -141.04080 -137.31700 -130.90918 -123.84132 -131.00024 -136.20937 -140.16029 -143.39089 -147.58958 -152.02415 -157.20737 -163.83214 -159.47925 -162.68717 -163.88431 -168.91177 -167.01305 -166.37001 -163.23198 -159.01952 -153.46758 -150.79385 -155.62767 -160.99608 -155.83981 -157.59732 -165.13124 -166.16362 -167.61507 -169.24888 -165.04241 -172.09830 -174.58688 -172.00486 -170.43033 -171.27872 -178.64628 -176.16873 -171.01883 -170.90066 -176.93427 -175.90626 -174.80851 -173.32233 -174.36685 -175.94089 -175.91277 -177.56088 -175.28681 -175.07767 -174.26566 -175.55276 -176.87528 -171.13329 -172.77783 -170.35833 -176.54999 -179.21547 -200.07744 -220.39304 -405.72471 -594.24927 -1002.60536 -1261.53164 -1695.57785 -1919.24230 -1942.04385 -1976.08998 -1995.81229 -2001.37064 -2011.56505 -2016.14393 -2026.94193 -2038.51258 -2040.50492 -2043.42870 -2041.38872 -2042.97788 -2038.75212 -2045.23993 -2036.11212 -2038.68709 -2034.79733 -2038.27502 -2049.40668 -2063.64291 -2057.61395 -2083.03912 -2085.98527 -2081.27181
236.33861 233.07272 248.78588 63.86255 44.23038 39.80676 84.94948 119.76506 141.50235 141.00177 155.14042 112.47589 65.63868 24.91402 -28.35259 0.56295 -21.85287 -20.55985 -39.96147 -68.44815 -74.73111 -89.77982 -93.15255 -124.59919 -129.98953 -132.68988 -122.28907 -105.96741 -108.24069 -129.71821 -139.45402 -139.03610 -140.41434 -142.94043 -157.21061 -159.84608 -170.46309 -156.67513 -149.96117 -145.59313 -153.03240 -157.16108 -164.36338 -159.78549 -156.81864 -146.15284 -134.34928 -131.96055 -125.65266 -123.56212 -124.61126 -139.45497 -142.82054 -143.61236 -149.60405 -158.88770 -163.91335 -165.43881 -165.60064 -164.48357 -172.11646 -170.47670 -164.78588 -164.93211 -157.73751 -151.45896 -155.60717 -153.81975 -159.53249 -162.51539 -162.61888 -166.51729 -167.44999 -171.21983 -172.43351 -164.05111 -170.12475 -170.93150 -171.14014 -171.78821 -175.22035 -173.51083 -172.85095 -172.15715 -178.52248 -177.82770 -170.83377 -175.60992 -175.83415 -173.84053 -177.35378 -175.44568 -174.43865 -173.98352 -173.42163 -175.46152 -177.34850 -172.91374 -177.05589 -172.12319 -173.87691 -178.48353 -172.15840 -181.93439 -191.37329 -208.43400 -218.88160 -614.00783 -828.65043 -1215.24265 -1420.46221 -1773.97129 -1935.42977 -1965.18496 -1979.70816 -1989.77176 -1998.09569 -2012.43445 -2019.63432 -2022.50963 -2027.46285 -2036.19372 -2034.01121 -2030.94263 -2036.08133 -2034.30556 -2036.11653 -2038.91184 -2034.27105 -2043.21001 -2042.72996 -2058.29721 -2064.97320 -2086.85968 -2085.91403 -2083.72036
200.29128 203.85032 120.99930 50.13801 6.99879 42.85784 78.34423 118.13041 133.00759 130.12687 135.25964 138.22067 111.86896 91.96091 49.58496 17.15794 19.21772 3.96621 -54.10331 -73.14073 -81.39584 -101.55547 -113.81300 -118.43398 -133.34269 -146.60491 -137.19418 -118.49712 -124.38146 -131.07000 -158.10362 -151.16754 -150.96782 -164.51522 -168.04826 -168.58196 -163.98452 -156.61352 -144.95855 -148.00419 -151.28078 -158.62850 -165.16918 -160.58702 -155.09782 -145.99179 -134.57038 -125.42598 -123.71670 -121.90143 -124.77099 -134.40661 -144.05125 -152.01626 -152.52337 -159.42417 -165.13143 -162.05636 -170.33086 -170.25025 -162.12352 -166.59644 -171.11446 -157.58540 -157.47570 -148.48855 -145.14703 -151.57391 -160.61997 -160.95093 -166.43226 -168.02632 -170.24339 -170.56200 -171.62751 -172.24919 -173.65450 -174.19619 -172.61035 -168.06199 -175.40507 -171.53666 -171.55891 -174.89572 -173.15567 -179.41650 -173.54824 -172.29846 -171.73419 -174.97267 -175.34990 -172.60988 -176.16596 -170.59052 -176.49521 -176.64157 -174.08060 -174.02090 -176.17121 -174.16191 -172.40290 -175.27139 -177.72102 -174.44311 -183.34079 -192.35583 -208.32586 -360.06854 -796.12309 -1006.00875 -1344.63798 -1500.12509 -1829.25314 -1930.39943 -1968.68205 -1977.30886 -1987.63512 -1997.35495 -2007.41046 -2014.37898 -2019.51111 -2028.03630 -2025.54743 -2033.16026 -2034.91417 -2037.49298 -2034.23230 -2036.63144 -2041.69232 -2047.67680 -2048.38950 -2063.29747 -2071.20662 -2087.54584 -2094.45119 -2092.00220
196.38484 191.52840 106.32808 31.86761 16.13242 49.43112 79.17383 118.64804 117.62446 128.74448 128.96091 119.51898 139.98408 150.09564 81.73545 66.28621 22.33411 -9.88208 -66.22554 -60.02318 -58.98217 -84.44403 -94.13228 -106.76370 -120.61050 -143.70604 -141.84689 -138.82779 -137.37264 -154.82222 -158.71238 -162.35591 -167.51277 -169.73900 -175.00833 -165.15448 -166.44628 -160.32560 -152.61415 -147.79625 -151.38995 -157.90099 -157.69324 -149.23104 -147.01312 -136.83945 -130.24375 -125.61485 -120.47563 -124.73065 -126.95041 -141.85395 -144.96446 -152.64315 -150.72923 -149.54241 -157.04317 -160.15769 -166.09827 -165.54814 -162.11264 -161.33019 -166.38723 -164.46055 -154.83849 -147.51444 -145.58556 -147.91831 -155.22912 -158.78191 -166.57687 -166.42466 -165.97309 -169.99228 -171.46776 -171.82040 -173.61913 -170.93178 -166.48233 -169.30936 -173.36676 -172.98958 -178.90548 -170.95543 -176.00227 -173.06431 -173.18689 -178.53814 -176.12210 -168.91007 -173.06451 -175.44020 -174.80411 -174.74221 -175.16828 -175.13259 -175.26990 -177.12691 -175.10371 -175.99066 -179.09928 -174.73841 -172.44177 -173.67707 -178.88813 -180.97124 -194.13458 -212.46422 -543.32122 -934.22078 -1167.66862 -1572.18739 -1752.68041 -1907.13907 -1935.00345 -1964.02272 -1972.08967 -1992.85013 -2004.39108 -2006.05501 -2017.26356 -2020.66660 -2031.17218 -2034.43077 -2032.49096 -2037.84596 -2037.36390 -2039.95429 -2045.12018 -2039.38096 -2055.16855 -2064.51271 -2067.52439 -2081.03698 -2094.08492 -2096.54833
147.21385 142.21593 147.12002 -15.76635 -24.97125 13.50802 53.82556 71.82445 88.07852 89.62685 120.33197 130.80671 135.40889 132.45959 101.34067 85.46370 35.47248 -5.75081 -40.56681 -38.24488 -63.80504 -82.06723 -88.58067 -104.01831 -117.86231 -135.84569 -154.22463 -157.98523 -151.13529 -158.94838 -164.59726 -166.95863 -167.00179 -169.39430 -165.96412 -162.87864 -161.64263 -154.30397 -141.82577 -134.76207 -143.93743 -153.32755 -155.49678 -139.78077 -135.10557 -126.39541 -118.56667 -124.51148 -123.19231 -128.33213 -134.64829 -136.19228 -144.01068 -139.66272 -140.89972 -143.99375 -149.27175 -153.81574 -167.42950 -164.37651 -163.39811 -158.31096 -162.42188 -162.31001 -143.54904 -140.62366 -139.20450 -144.67906 -141.48609 -147.33636 -159.44975 -159.67379 -159.59576 -166.14054 -171.74058 -171.09545 -174.92635 -168.12560 -169.82608 -171.86579 -173.96928 -166.22327 -172.97584 -170.40503 -177.03318 -174.48482 -177.08479 -172.26394 -173.33533 -172.81267 -172.99537 -175.23593 -172.66351 -177.80103 -173.52058 -174.61541 -175.29075 -172.42956 -170.40089 -177.82073 -174.79088 -172.98267 -175.08032 -172.21763 -176.54453 -179.74163 -188.39929 -208.30485 -371.57792 -751.84681 -1025.97029 -1482.86147 -1771.38397 -1875.40106 -1920.88745 -1934.71616 -1957.54118 -1991.72771 -1990.48322 -1996.56750 -2013.33107 -2020.73219 -2023.74324 -2032.17556 -2036.24900 -2039.47505 -2038.98557 -2039.23652 -2044.13734 -2059.10359 -2057.17558 -2080.76516 -2075.33249 -2092.45229 -2104.77382 -2103.44583
122.34486 121.60525 73.44073 -10.19639 -29.32229 -26.51999 0.62934 24.49286 59.41384 81.48604 94.42556 96.03996 110.89629 101.79104 57.91317 44.38566 60.48093 17.59317 11.41369 -23.53176 -58.93361 -96.67434 -98.24640 -114.42639 -117.25574 -145.28095 -159.71036 -160.52348 -156.29633 -154.47623 -158.73511 -156.62066 -169.97755 -172.25368 -163.83880 -158.87945 -140.27262 -134.53117 -128.37181 -132.16040 -127.65690 -143.90918 -141.87318 -132.73024 -118.43200 -120.16055 -124.31520 -126.77535 -134.19729 -137.77082 -134.82524 -135.19527 -135.49384 -139.08877 -136.81237 -136.24533 -141.53917 -147.17149 -151.91975 -156.24051 -156.56733 -154.56925 -155.30686 -155.43413 -140.24842 -136.29813 -129.66169 -135.71351 -137.42480 -143.02456 -149.28944 -155.77209 -160.84751 -167.41754 -167.14584 -164.24087 -164.22747 -163.53526 -166.69712 -167.41961 -175.94707 -168.97202 -174.19773 -168.13101 -174.88996 -176.53382 -170.94129 -178.63260 -176.26536 -170.95102 -172.03119 -174.03050 -176.32756 -173.76396 -178.27411 -176.65886 -172.93614 -173.79953 -175.15824 -176.16635 -175.65301 -176.06105 -173.70672 -174.63046 -177.51876 -182.72118 -186.82041 -210.04321 -269.82212 -565.08613 -1008.77593 -1447.14831 -1698.19351 -1865.78966 -1881.67837 -1899.86056 -1941.16389 -1981.86122 -1983.44375 -1994.94345 -2006.89761 -2016.72932 -2024.87502 -2030.52021 -2043.67840 -2041.67002 -2044.37442 -2050.61211 -2059.74317 -2060.82212 -2071.82906 -2078.40778 -2081.73151 -2105.34103 -2116.97493 -2108.06420
121.98942 119.72773 84.93575 0.67232 -13.96071 -37.58264 -28.09714 -14.21122 10.23520 27.97194 29.82387 33.95666 27.47676 27.46078 -5.80080 29.19993 49.61335 46.27900 15.15115 -13.41774 -71.91005 -83.65751 -111.82270 -131.80738 -141.19880 -142.81108 -157.99008 -156.63948 -147.05968 -139.55436 -144.87199 -158.92310 -171.02884 -167.64758 -153.89543 -146.85248 -138.77522 -119.71280 -118.63611 -113.16508 -120.45243 -122.89933 -127.80739 -117.93771 -113.97871 -127.67599 -127.53512 -131.42999 -135.55405 -142.59326 -148.18597 -137.52857 -137.70955 -134.60760 -136.07752 -132.83965 -135.66305 -139.86480 -151.80301 -153.72839 -148.51397 -149.24212 -148.99918 -145.18291 -137.90789 -130.65734 -137.76417 -138.72900 -135.00777 -143.98644 -143.88785 -147.04373 -155.35879 -160.49873 -160.82892 -161.21847 -164.11608 -166.13088 -170.88954 -170.05308 -171.58333 -169.86178 -173.29711 -173.33898 -175.47431 -171.22903 -171.13140 -179.10112 -174.15827 -176.53654 -174.93446 -173.96006 -175.00648 -174.37691 -176.72399 -183.00121 -172.71292 -170.91477 -174.22202 -173.94019 -177.39934 -171.44323 -174.87352 -173.21224 -178.48147 -186.77701 -191.65152 -273.15971 -339.95276 -623.98592 -1023.42840 -1448.65803 -1616.27516 -1823.53269 -1870.06227 -1890.96995 -1946.02329 -1959.36804 -1978.77964 -1995.68338 -2018.15641 -2025.44392 -2028.56539 -2032.86133 -2043.10148 -2039.35678 -2051.18114 -2058.98109 -2063.89456 -2070.15812 -2074.12786 -2090.42317 -2095.27036 -2103.76826 -2125.31251 -2126.79176
182.75203 187.57441 100.05151 13.85819 6.58403 -30.10715 -41.94769 -26.42990 -18.58550 -13.49142 -19.46977 -20.45151 -20.02385 -26.95655 -33.75602 1.51785 50.44787 32.54354 15.11704 -15.60129 -67.39673 -84.81229 -107.65570 -117.37892 -135.96973 -138.18244 -140.19060 -137.41721 -133.74463 -132.84663 -140.45790 -158.94750 -164.52884 -155.87894 -149.16293 -136.58921 -122.26552 -117.48136 -112.84393 -111.26437 -114.08271 -108.34006 -115.11429 -115.52539 -115.17307 -129.18683 -138.64067 -142.57943 -145.28736 -147.94149 -156.25920 -153.42722 -142.09613 -143.92085 -136.50622 -135.74083 -139.24830 -141.45666 -142.32216 -146.82032 -141.71877 -143.10581 -144.56561 -143.58787 -136.82521 -133.61729 -141.76751 -138.00280 -142.76729 -150.08359 -149.21336 -148.98206 -154.84337 -152.35039 -156.62135 -158.67563 -159.16929 -166.25973 -170.16638 -166.78125 -172.80461 -170.05380 -175.52283 -173.64406 -171.62848 -173.13571 -177.92958 -176.46285 -169.33005 -178.70731 -175.67074 -171.12554 -180.57903 -176.84318 -172.86815 -174.99731 -174.04441 -177.69228 -169.68860 -170.77079 -176.13301 -174.23590 -173.77384 -176.64819 -178.52870 -187.66676 -196.30115 -279.54805 -339.28005 -593.90667 -952.65408 -1321.14353 -1621.23916 -1791.99801 -1825.15479 -1897.41479 -1941.14257 -1960.33748 -1981.54783 -1995.15036 -2021.54275 -2022.77007 -2033.41425 -2043.41566 -2041.91304 -2050.52008 -2062.93634 -2065.30562 -2074.69503 -2078.58810 -2088.05742 -2100.30710 -2113.87805 -2124.34437 -2137.59928 -2137.96768
186.67077 189.78339 115.10070 56.89575 12.39971 -23.50242 -41.52729 -29.25333 -26.47421 -19.60199 -25.26122 -35.08957 -48.08281 -48.73412 -42.52119 -9.12441 22.52020 32.25096 11.29685 -21.51947 -37.87665 -76.11501 -105.70999 -110.99367 -117.44176 -125.49045 -120.49959 -125.90703 -126.93117 -139.11019 -152.88244 -156.86367 -158.52311 -150.02274 -139.27220 -114.14262 -101.96879 -98.76477 -105.07824 -97.36324 -107.18295 -107.82080 -119.21342 -113.33242 -119.26671 -134.11169 -137.83579 -148.19811 -156.44696 -161.46064 -166.76812 -157.11055 -152.57935 -144.00394 -136.94517 -142.49196 -145.09295 -147.51260 -143.86204 -143.50222 -140.20453 -137.97376 -139.35793 -144.16849 -137.25768 -137.78895 -136.56726 -140.87997 -148.21259 -152.45880 -152.18117 -148.44185 -152.97685 -167.86937 -163.57854 -164.21921 -166.12663 -172.76869 -169.19372 -172.28708 -176.27886 -174.84758 -175.21082 -174.04073 -171.33455 -169.35265 -179.61377 -176.00888 -175.68041 -174.09671 -174.23690 -178.88702 -173.12271 -172.44791 -171.41421 -171.95814 -176.82048 -171.63172 -176.91305 -182.30804 -174.60051 -171.93507 -179.88354 -173.70073 -177.05174 -177.87511 -192.40442 -208.69965 -386.66106 -596.76965 -939.80442 -1301.40518 -1606.69837 -1744.91303 -1815.67248 -1902.50861 -1940.11860 -1951.40207 -1979.70507 -1995.61127 -2019.73456 -2028.84104 -2038.06290 -2042.45505 -2054.28697 -2059.51241 -2069.74713 -2070.14013 -2079.17939 -2087.58009 -2096.24885 -2100.69726 -2112.76269 -2132.66688 -2144.16564 -2144.79348
187.83928 191.31041 184.49177 17.67834 7.14232 -16.72493 -41.55272 -42.31520 -44.40659 -26.41254 -21.45206 -31.40834 -44.85118 -63.38830 -54.28231 -28.11425 10.81657 21.20119 8.18523 -3.28660 -23.40195 -88.85210 -100.90404 -106.40406 -113.37614 -113.43843 -116.16576 -127.02361 -133.59044 -152.22827 -162.20668 -155.33644 -146.79382 -134.24705 -120.88318 -111.76944 -102.95717 -101.01803 -106.01029 -107.41518 -115.48652 -123.72489 -132.25501 -133.57079 -131.47115 -137.76326 -139.38690 -150.80171 -166.46124 -167.40393 -169.06658 -169.93465 -160.65840 -156.00020 -153.32758 -145.09883 -150.09385 -161.55650 -162.35922 -153.63342 -152.08995 -149.43594 -146.19532 -148.62894 -143.40504 -147.76960 -148.38023 -151.07948 -152.87219 -152.69991 -152.16390 -154.70530 -152.59152 -163.76687 -173.20576 -169.09741 -165.15155 -172.45410 -166.03025 -173.75150 -175.97956 -177.54704 -177.90534 -176.36529 -171.20357 -169.23692 -174.43100 -177.48207 -170.66825 -173.05080 -170.89539 -174.13092 -171.18985 -173.79484 -170.93150 -175.75175 -174.37358 -174.14186 -180.29055 -175.07651 -173.69632 -172.75549 -168.09756 -177.12173 -177.44261 -175.55996 -192.28689 -199.36435 -279.86209 -646.34206 -989.29319 -1315.23705 -1441.97844 -1732.13792 -1768.11484 -1879.21244 -1921.75817 -1955.61234 -1994.27938 -2004.65215 -2023.56119 -2028.46428 -2035.88478 -2046.05719 -2052.69337 -2059.77491 -2070.77087 -2080.95012 -2084.85427 -2092.89434 -2100.56689 -2105.45171 -2116.42067 -2151.06198 -2147.46170 -2155.54221
179.42190 179.44499 122.71001 30.57578 2.31541 -18.76330 -47.13602 -59.15697 -52.89334 -44.30882 -34.00360 -32.82779 -50.90655 -67.11202 -60.34165 -29.70844 -18.36013 -1.47344 -0.63423 -27.50902 -45.99373 -86.99351 -91.57777 -106.83234 -115.37189 -121.59080 -121.71776 -141.20692 -147.46897 -156.26615 -143.48345 -135.06907 -128.33333 -125.38602 -110.62204 -108.27910 -104.64378 -104.96568 -114.24197 -118.41795 -128.02375 -138.23632 -136.22565 -140.67381 -138.64031 -141.27327 -149.32725 -155.55786 -170.65277 -164.42447 -171.18114 -169.37915 -165.88790 -157.94271 -162.16757 -163.31685 -167.66278 -165.21207 -157.39700 -154.41701 -164.51072 -159.40934 -159.79002 -148.21035 -144.26013 -148.65719 -156.35161 -165.27784 -165.76134 -160.06517 -160.54995 -158.28732 -162.25849 -166.25661 -174.40711 -175.54887 -171.87348 -169.90219 -172.01171 -171.92203 -176.11294 -171.68243 -172.48118 -176.06693 -173.68737 -171.55949 -177.09080 -172.45393 -174.96896 -176.06410 -173.10346 -176.63597 -174.13602 -175.66874 -172.28932 -171.18636 -179.65819 -177.34990 -174.95363 -177.28258 -174.29762 -173.76593 -172.02657 -174.16651 -178.08120 -180.01200 -186.59674 -260.21849 -348.89939 -796.54657 -1010.11697 -1272.85049 -1574.50486 -1670.50973 -1787.94427 -1820.75559 -1887.47474 -1955.36615 -2002.11438 -2018.36571 -2029.65377 -2037.38904 -2037.69049 -2048.14446 -2049.81707 -2058.90428 -2061.82668 -2072.94528 -2087.75816 -2090.55056 -2104.85293 -2113.88182 -2122.78994 -2157.47409 -2153.60461 -2161.07073
191.92471 193.74397 120.95095 33.27352 -15.55679 -39.04678 -61.10366 -65.22357 -64.34273 -54.49721 -41.84680 -47.40990 -63.87933 -82.79141 -65.80760 -50.41477 -22.89466 -4.41984 0.64856 -33.40259 -63.77062 -69.97347 -103.34754 -105.64064 -119.00248 -129.60974 -131.73259 -144.41011 -152.60072 -134.06395 -128.40880 -120.95685 -111.67187 -110.55362 -99.69575 -100.39084 -106.40828 -115.24827 -126.86962 -129.84504 -138.86440 -142.95932 -148.62013 -147.69133 -161.70094 -151.67591 -160.22479 -164.87397 -166.94357 -175.47795 -172.50232 -175.27373 -171.83330 -171.86844 -168.87591 -167.32521 -165.45845 -165.65609 -163.72500 -162.27853 -158.23935 -169.77330 -166.19966 -162.06695 -151.89268 -147.47622 -147.93552 -157.16597 -171.54933 -166.89281 -165.31959 -163.71449 -163.05645 -162.92961 -170.73790 -171.08615 -175.12535 -172.56812 -169.61337 -171.40246 -174.00248 -175.33906 -174.62595 -170.63594 -170.32407 -172.32907 -170.67430 -172.53221 -175.72103 -172.99971 -174.37133 -176.01759 -174.36962 -177.96914 -175.28140 -176.97483 -176.52514 -176.30770 -172.91499 -175.41315 -171.54185 -173.74010 -178.49666 -169.18298 -175.95519 -182.00005 -185.57539 -296.24069 -521.47568 -864.32996 -1085.21451 -1424.15097 -1473.69927 -1667.22426 -1762.85985 -1793.53535 -1871.72023 -1994.66888 -2006.86652 -2022.00237 -2024.62661 -2025.06054 -2023.85144 -2039.13746 -2041.61029 -2054.71038 -2057.38691 -2070.22347 -2088.97544 -2092.57374 -2101.55180 -2111.37898 -2118.40450 -2140.43147 -2151.56473 -2154.22860
179.99238 179.55558 108.07058 32.90357 -20.80630 -63.79679 -67.26466 -69.87438 -56.89841 -52.73629 -60.46602 -57.42909 -73.98624 -82.07716 -82.35981 -35.30912 -22.72558 -1.62792 -10.64557 -23.22184 -36.48267 -72.84766 -86.48700 -100.01588 -102.97822 -120.68144 -130.53238 -138.53113 -134.41107 -123.33421 -117.89235 -105.63481 -100.45977 -100.99913 -100.59675 -100.64313 -108.86829 -110.02893 -131.05621 -144.23610 -147.09038 -156.71711 -165.41352 -163.39394 -170.96063 -161.29991 -169.31582 -164.62560 -171.70601 -169.64510 -169.84690 -172.39444 -173.06235 -175.31541 -169.98776 -174.17574 -170.54133 -168.78190 -169.71902 -167.41816 -167.21483 -173.89165 -170.57879 -161.99442 -157.14849 -149.37919 -148.63920 -162.13141 -165.24227 -172.18929 -159.24696 -160.20240 -160.45215 -169.57145 -169.44900 -175.82305 -173.51575 -175.23594 -171.52078 -175.39505 -173.37058 -175.07135 -166.38908 -164.42486 -167.66067 -169.05660 -171.81384 -173.21696 -175.48311 -170.50465 -173.37498 -174.16857 -173.24430 -174.42637 -174.25161 -175.01116 -175.77215 -175.66352 -170.75949 -175.96531 -173.14451 -173.92390 -176.48101 -171.98985 -179.20442 -181.88750 -224.87879 -368.88970 -719.18797 -846.84933 -1132.37696 -1376.64027 -1447.34224 -1664.92355 -1749.69273 -1796.87128 -1832.14143 -1952.01451 -1983.84081 -2006.17848 -2008.27354 -2017.95438 -2016.60785 -2026.79685 -2032.03246 -2036.12567 -2047.44405 -2065.64240 -2078.32404 -2082.77200 -2095.03129 -2109.47933 -2117.47585 -2140.13541 -2151.52496 -2150.47661
130.21612 133.30151 78.38905 -12.40758 -27.84217 -51.57208 -68.94573 -83.72197 -68.29995 -70.97903 -70.05237 -81.93217 -85.62508 -95.34886 -74.00056 -28.70403 -12.36243 3.70082 -3.35690 -20.20441 -27.76980 -43.90160 -64.07328 -65.12869 -87.64641 -97.87416 -116.99182 -121.43803 -126.18144 -130.92286 -121.04001 -99.96328 -95.92120 -100.00059 -102.31019 -105.81015 -114.06331 -126.30136 -132.96303 -150.17569 -161.93269 -169.81706 -171.90900 -167.79465 -172.27600 -172.35059 -172.21351 -168.57781 -170.21469 -165.56549 -164.59830 -170.65739 -171.22183 -173.47603 -174.65902 -172.13903 -175.71777 -166.93326 -175.60148 -169.80945 -170.25391 -171.11025 -172.01230 -167.42776 -163.34901 -160.06653 -156.60694 -166.86318 -174.95900 -166.89378 -160.71908 -169.34871 -160.90823 -173.98936 -175.87920 -173.88861 -173.73947 -173.19401 -173.82286 -174.29878 -173.08966 -170.22292 -171.70973 -169.34952 -158.83602 -167.01431 -171.38257 -171.25632 -172.78305 -170.12031 -173.32542 -172.89083 -174.64651 -171.74215 -169.78649 -173.88540 -172.80966 -175.62287 -173.40641 -180.88634 -179.51127 -176.62099 -172.85330 -181.10365 -178.95625 -191.08890 -187.88029 -324.82268 -640.33718 -877.61037 -1006.40997 -1229.18321 -1498.52745 -1618.79189 -1673.27737 -1744.04208 -1791.03196 -1911.81387 -1955.24399 -1970.32509 -1972.70769 -1989.21588 -2007.75881 -2009.06474 -2024.26930 -2031.31464 -2039.10348 -2067.13829 -2069.33292 -2080.56862 -2090.87023 -2100.90974 -2116.73117 -2126.49043 -2147.80536 -2147.40207
95.30682 95.45007 32.02049 -34.96785 -41.38229 -43.10289 -68.28922 -78.55309 -89.62939 -89.61382 -90.33798 -87.89191 -89.82766 -98.97657 -88.39434 -59.43659 -37.88328 -28.81530 -10.86964 -19.17023 -28.64669 -25.63453 -35.41519 -46.19167 -72.53199 -99.10838 -112.20345 -109.16089 -115.27185 -116.33926 -107.85846 -100.98093 -102.69826 -108.01722 -101.76386 -118.27815 -127.30774 -127.46537 -145.98120 -152.03209 -165.03532 -174.34201 -175.96698 -171.34540 -166.70740 -166.43025 -172.98060 -174.83794 -170.94165 -168.79805 -163.12530 -165.89307 -165.26881 -173.09562 -175.92606 -172.70836 -167.31753 -160.84487 -165.81054 -174.53808 -174.07934 -177.11570 -176.39805 -174.32700 -171.54324 -160.65287 -166.43062 -170.13588 -168.84254 -174.35642 -174.78295 -169.60785 -170.97807 -176.59147 -176.16925 -178.25650 -175.88751 -167.94941 -169.68355 -173.89499 -173.14338 -174.55485 -168.44116 -169.76711 -163.23294 -170.04974 -173.56287 -169.79504 -174.17726 -169.01345 -174.79175 -177.05712 -171.56033 -173.84901 -172.48951 -177.04313 -170.37692 -173.39153 -174.68941 -176.72756 -173.85330 -177.11569 -176.72172 -180.57894 -178.01789 -194.75387 -202.63328 -309.11644 -573.93525 -793.31075 -1009.71405 -1234.26790 -1405.59873 -1551.18680 -1646.18058 -1711.51916 -1759.93374 -1868.49171 -1914.07996 -1918.07104 -1951.39986 -1936.45364 -1953.35396 -1962.47395 -2001.02700 -1997.35797 -2010.52578 -2050.75537 -2061.07633 -2071.42113 -2083.59496 -2102.23848 -2104.61025 -2126.59363 -2137.77317 -2133.65722
96.59880 93.68938 33.01605 -45.76552 -55.04525 -63.32475 -61.43988 -80.06615 -86.53801 -91.33569 -100.71724 -108.13179 -109.38148 -112.54178 -104.37062 -90.18843 -79.64096 -45.07087 -43.92000 -31.43239 -23.91418 -23.80658 -32.32346 -44.77171 -61.89453 -92.51510 -114.07079 -109.36088 -100.11005 -97.44196 -92.02807 -95.41148 -107.82292 -111.95979 -126.95856 -141.27654 -155.07980 -143.57853 -145.46007 -161.57503 -169.99007 -172.54542 -170.59846 -164.06063 -154.70992 -156.14045 -167.01699 -164.38758 -167.19949 -156.64830 -161.02376 -158.32782 -163.58006 -173.46984 -168.68481 -167.32770 -163.10875 -159.29386 -158.80363 -163.63897 -172.28668 -176.28262 -171.92032 -174.61368 -174.00330 -171.45957 -168.63147 -166.05153 -173.71647 -168.82573 -175.02686 -173.04410 -176.84893 -177.03162 -171.98304 -168.75529 -169.77980 -163.39062 -158.20790 -159.34296 -170.09941 -167.16583 -170.77543 -168.32819 -167.30038 -168.05903 -174.62841 -169.79214 -171.04581 -173.01400 -169.60155 -169.91537 -175.54471 -174.39620 -173.49885 -176.07284 -178.40018 -180.10148 -181.43573 -177.13294 -181.57040 -181.82916 -185.63881 -189.47226 -241.01655 -194.04423 -396.68623 -420.54507 -627.94092 -883.20782 -1025.60127 -1172.31788 -1325.11885 -1469.06934 -1608.85027 -1653.63557 -1735.51477 -1795.58778 -1836.98255 -1866.06240 -1858.80406 -1851.27305 -1864.77303 -1882.94041 -1890.18081 -1945.94411 -1989.38025 -2016.16882 -2040.04215 -2053.48023 -2067.79276 -2079.00100 -2087.97453 -2108.33778 -2118.57297 -2117.13315
167.94579 164.59439 65.35747 -40.33024 -53.38902 -60.06150 -64.47979 -71.88575 -86.99426 -93.70446 -94.54776 -99.85333 -104.25078 -100.36740 -115.77322 -109.02988 -116.03649 -84.50076 -73.62564 -39.62811 -44.07166 -22.09070 -34.83521 -38.86832 -39.89895 -63.49790 -85.52158 -91.58712 -87.65683 -81.21544 -86.76871 -97.81991 -110.47057 -118.05324 -135.14198 -151.58490 -157.06820 -158.65050 -159.98484 -167.26173 -174.61953 -172.96617 -172.31584 -162.79174 -152.42281 -155.95117 -160.69141 -163.05793 -159.97660 -155.55857 -159.11742 -161.91581 -161.84848 -169.38272 -166.78941 -165.35401 -167.82150 -162.55311 -165.21208 -171.73470 -176.42702 -170.65796 -173.33873 -174.14878 -170.26949 -171.05183 -170.42121 -176.43113 -173.68652 -175.82130 -173.30879 -176.35198 -166.76032 -176.66928 -170.64865 -165.01276 -165.50653 -161.04643 -158.83889 -154.52552 -160.78139 -164.63979 -171.48255 -167.68832 -167.77323 -166.15550 -168.50211 -171.69054 -176.92844 -173.73808 -176.44451 -175.97114 -178.21242 -178.93048 -174.69254 -174.29318 -173.63180 -176.19534 -179.94823 -176.21170 -177.06339 -181.98969 -189.76219 -253.33517 -334.42295 -409.18970 -494.65982 -534.46644 -704.49559 -959.08159 -1021.65403 -1110.28762 -1291.58518 -1378.54964 -1483.59014 -1545.98811 -1662.49016 -1746.17392 -1775.26142 -1771.62013 -1776.72330 -1819.85481 -1839.18540 -1862.86766 -1874.51089 -1899.11121 -1936.56933 -1952.97305 -2014.62878 -2041.77469 -2054.19842 -2072.71336 -2080.79349 -2095.87327 -2102.01402 -2102.04933
121.99897 119.56940 71.76981 -44.76880 -48.95710 -49.09623 -40.80400 -64.08208 -64.51719 -77.61906 -79.09925 -90.09634 -100.53830 -89.47972 -102.84335 -115.82411 -127.53985 -100.41638 -73.95338 -98.78218 -63.23240 -48.81632 -32.53675 -36.09768 -32.51669 -48.76159 -76.55398 -79.10161 -82.20620 -94.82169 -107.75555 -115.07355 -120.20248 -123.31457 -133.45615 -149.89299 -160.49976 -158.72817 -167.24210 -169.25318 -160.97405 -166.88745 -163.45351 -165.63938 -157.22545 -152.37162 -156.77813 -156.91067 -149.45181 -149.07354 -149.21119 -161.56846 -160.78218 -163.24069 -165.27465 -170.50387 -174.67242 -170.33450 -170.43157 -176.36537 -171.30964 -169.09016 -170.82185 -166.98904 -170.01688 -171.64071 -175.36592 -173.53139 -168.68685 -170.81915 -172.17743 -176.28707 -178.05080 -168.03259 -173.72627 -170.86829 -162.49033 -157.52732 -153.06348 -156.19486 -159.02957 -162.60553 -165.36924 -166.93287 -169.02430 -169.14964 -170.08082 -172.59558 -173.65333 -173.13485 -170.22018 -173.44103 -170.16179 -176.73681 -171.46783 -172.25486 -170.37097 -175.47204 -189.33244 -196.33641 -198.93509 -257.30415 -255.75408 -333.87267 -446.16029 -449.71848 -574.43613 -739.70782 -960.81396 -975.71607 -1025.05270 -1146.65620 -1182.49210 -1308.41690 -1440.88286 -1484.05703 -1528.42732 -1559.27692 -1671.85726 -1745.22419 -1721.88219 -1751.22027 -1730.77302 -1790.89913 -1817.86420 -1863.63259 -1863.82985 -1916.83053 -1999.05007 -2008.49114 -2016.71584 -2038.70208 -2048.56096 -2076.57055 -2074.27072 -2073.54197
205.56096 201.54493 156.51757 -34.43160 -29.83726 -20.79074 -17.18629 -27.80512 -60.45545 -61.82211 -57.70256 -84.31967 -75.81922 -65.47226 -76.61877 -112.46027 -121.26410 -107.55295 -85.28691 -94.69193 -94.00086 -72.79975 -52.26173 -44.12229 -36.98617 -41.47171 -47.98222 -71.76967 -82.01740 -104.81714 -112.36210 -137.84502 -134.76949 -132.46006 -147.01182 -154.60145 -171.14845 -173.28959 -165.58350 -167.49914 -154.02493 -159.83545 -161.66564 -172.39720 -165.24668 -153.11672 -148.07333 -151.48980 -142.97737 -142.79931 -137.08920 -145.64014 -154.20073 -164.09879 -168.92061 -162.59462 -169.75943 -172.41200 -169.15472 -170.30570 -165.75823 -161.66022 -162.83405 -161.56013 -165.41817 -173.71229 -170.92835 -169.11463 -163.34735 -165.08276 -166.02137 -166.97763 -163.36112 -171.12917 -172.87173 -165.52077 -157.77589 -155.04222 -154.87559 -161.53091 -162.40376 -170.90244 -170.26344 -176.50210 -173.61405 -176.45576 -172.23442 -175.73105 -176.43946 -171.17268 -171.45351 -170.57272 -173.16608 -176.74224 -173.74557 -168.02468 -175.80173 -178.26412 -188.51482 -200.14809 -293.27564 -329.21348 -403.62587 -439.02493 -588.72594 -621.97687 -679.73033 -875.24220 -929.36278 -1001.22418 -1057.72980 -1114.79904 -1182.14601 -1224.48207 -1370.33172 -1432.45634 -1450.23383 -1512.94513 -1548.04796 -1617.26980 -1619.93090 -1640.29897 -1659.19388 -1709.16023 -1712.93327 -1775.52323 -1824.30569 -1830.32792 -1927.80726 -1974.91516 -1998.50398 -2021.13046 -2015.73734 -2034.40273 -2042.07780 -2040.65838
128.40727 131.29192 76.55841 -4.56496 -26.09167 -2.49739 22.83419 14.74531 -19.15662 -41.59501 -54.47654 -58.42491 -62.47522 -64.84183 -79.89547 -115.35172 -131.54205 -126.95871 -113.24055 -112.62733 -111.06603 -69.25829 -70.48235 -60.17717 -55.33450 -36.74310 -37.70801 -58.95631 -86.40058 -98.19586 -113.90307 -136.01972 -144.55817 -148.11780 -153.52098 -164.76113 -175.28320 -169.32688 -160.81875 -147.66703 -153.41018 -138.50846 -159.99497 -158.26519 -156.60884 -146.56045 -140.51998 -134.96885 -133.01264 -129.70989 -133.92478 -134.91341 -147.39181 -158.49887 -160.89203 -163.07898 -166.55506 -164.81983 -166.98968 -166.20432 -156.54667 -160.21493 -153.08235 -154.16269 -158.98237 -159.02198 -166.69566 -165.47233 -151.91961 -153.36484 -158.70058 -155.27925 -158.98548 -168.25034 -167.19339 -167.24782 -161.08851 -158.42077 -164.79905 -164.18076 -174.71779 -171.70117 -171.28136 -176.28254 -177.76749 -172.62488 -174.51537 -176.33303 -172.31686 -172.86954 -168.63325 -173.46764 -174.64779 -176.25123 -177.31040 -172.31693 -176.38524 -178.37026 -197.05986 -217.93798 -333.96835 -437.97436 -583.44185 -646.62074 -759.15044 -809.66368 -958.25063 -903.98137 -999.68653 -1021.12798 -1082.16300 -1126.24172 -1179.86775 -1190.10268 -1273.77684 -1372.75907 -1384.57790 -1400.16674 -1403.11123 -1400.73656 -1479.24095 -1509.13183 -1543.23416 -1604.18448 -1648.53103 -1717.66054 -1741.52029 -1800.40143 -1845.49831 -1900.14384 -1930.70250 -1938.87197 -1975.40692 -2017.21190 -2001.88815 -1998.88595
127.00298 132.56050 57.82252 -29.40107 2.24906 41.36624 51.96968 51.92054 4.55754 -8.64055 -42.03879 -47.63914 -53.54113 -60.96741 -61.87829 -92.42462 -112.68256 -128.38964 -127.48040 -133.95264 -134.01005 -108.73580 -84.43329 -76.06412 -56.93820 -43.56495 -36.00871 -56.93889 -66.08979 -87.87133 -97.63560 -136.76490 -141.29035 -140.24898 -155.65344 -168.11407 -170.50557 -160.90006 -152.31103 -134.31280 -130.85934 -139.13423 -152.83749 -159.12966 -150.81323 -127.44639 -116.18762 -117.88545 -123.77810 -124.43176 -124.72061 -137.54253 -146.50765 -161.00651 -158.93218 -161.80916 -168.69551 -168.79398 -163.05997 -164.16093 -156.15963 -147.52420 -151.41539 -147.67311 -146.96821 -152.23474 -151.79001 -155.30980 -152.30064 -152.46279 -154.41047 -154.01874 -156.58714 -160.49748 -167.13308 -165.53397 -164.41796 -165.74717 -163.15174 -168.42788 -166.56395 -171.35005 -172.94787 -175.79753 -171.58354 -177.50459 -176.03742 -170.66629 -172.29355 -169.44648 -174.08241 -174.28612 -173.61798 -177.00782 -177.40134 -178.55530 -172.61239 -171.58315 -255.54836 -295.39585 -378.14918 -435.05823 -605.14667 -738.03073 -859.56930 -888.53028 -961.67003 -988.98387 -1000.64289 -1024.86040 -1048.55703 -1113.14826 -1138.49328 -1210.42568 -1258.77556 -1311.39773 -1307.13532 -1343.49648 -1328.15417 -1369.02704 -1387.16089 -1422.71189 -1493.59280 -1496.34952 -1518.28447 -1597.33802 -1701.24185 -1721.09424 -1756.25683 -1767.29062 -1831.21943 -1891.45962 -1894.75801 -1950.58123 -1953.56642 -1951.32167
223.61650 227.83339 110.55864 -7.13123 42.12280 74.81308 79.53937 68.92792 44.29964 -4.54766 -19.68253 -26.87079 -37.77761 -51.94964 -72.00883 -72.66434 -87.93294 -102.32401 -123.08236 -133.87693 -142.76566 -126.01746 -109.02368 -84.14935 -73.63876 -49.81675 -46.09167 -51.90879 -69.97627 -83.59647 -88.30069 -113.85579 -132.68850 -139.82147 -153.84408 -166.13315 -167.13134 -162.05495 -154.96649 -135.10732 -123.49718 -129.66618 -140.54550 -145.01972 -136.36268 -114.50797 -113.24667 -115.22049 -117.81899 -122.98276 -132.19493 -147.73487 -150.01174 -162.02709 -161.42252 -163.39795 -171.84751 -166.34445 -162.04098 -165.06977 -148.21551 -143.47992 -140.65561 -150.99097 -150.69525 -145.15752 -150.33623 -154.89073 -148.81981 -145.09886 -154.56332 -160.01533 -162.78314 -165.06852 -167.75920 -169.36318 -170.63318 -169.26081 -166.15672 -167.16373 -176.38554 -179.23954 -172.94507 -177.06496 -173.10378 -171.27724 -172.92917 -169.73745 -165.88404 -173.42406 -175.59691 -177.65959 -170.58254 -170.62732 -172.77824 -175.16428 -174.66854 -173.32531 -251.69573 -364.54195 -424.54536 -530.27772 -645.22494 -768.92821 -822.52537 -840.06297 -919.77779 -957.01749 -992.40317 -1029.87890 -1047.04028 -1092.48352 -1138.24437 -1192.68718 -1245.33816 -1257.14661 -1291.38247 -1279.89841 -1296.88981 -1308.58272 -1354.00259 -1358.66406 -1386.98208 -1407.11038 -1470.45270 -1465.25727 -1514.77348 -1555.63869 -1613.71753 -1720.59206 -1780.96398 -1828.83004 -1859.12907 -1855.04527 -1901.26966 -1897.50558
182.33389 190.00395 112.20931 31.37545 29.07021 93.42555 99.15711 95.97663 64.08415 20.15407 -13.04944 -14.93287 -28.86979 -69.69186 -71.77792 -69.60209 -82.57414 -89.19354 -105.80984 -126.12218 -135.37802 -131.45898 -131.03784 -103.95096 -86.74335 -70.30566 -62.89294 -61.99763 -73.70101 -88.08694 -95.82951 -107.53844 -143.93212 -151.50511 -160.31468 -167.82388 -166.07578 -169.08194 -165.06223 -138.63184 -115.93586 -121.57539 -127.97792 -134.85621 -119.69815 -111.06720 -110.29624 -118.50910 -119.89044 -125.04422 -138.80951 -153.18122 -158.08771 -168.39082 -168.41984 -162.58680 -169.70596 -170.22512 -168.01679 -161.22178 -151.52991 -141.57206 -141.71688 -138.24732 -138.35732 -139.81600 -156.47134 -155.28880 -157.91678 -157.35595 -162.05723 -170.31209 -168.31752 -168.87286 -172.95222 -172.72297 -174.02914 -174.22899 -173.44678 -174.00141 -178.17628 -171.09106 -165.04749 -175.90044 -172.64834 -173.96553 -172.10747 -170.74675 -174.17463 -170.10765 -174.44814 -171.98737 -170.75674 -171.68710 -172.24135 -177.58007 -179.12714 -176.31418 -233.94019 -288.54574 -422.71964 -497.64535 -617.96491 -747.34642 -812.12840 -842.75990 -881.55297 -919.37421 -982.18755 -987.53848 -1040.43235 -1083.05180 -1118.44429 -1179.09829 -1201.39875 -1231.79955 -1242.71816 -1230.85845 -1213.51654 -1245.70655 -1250.38029 -1266.13398 -1277.84835 -1319.38199 -1323.95239 -1376.21308 -1448.60273 -1471.44665 -1573.45129 -1607.59360 -1679.69317 -1794.43523 -1798.02787 -1847.46674 -1835.20684 -1830.05627
220.77178 221.72535 276.27046 36.55479 62.07069 101.18061 133.86907 134.47049 105.27228 28.65959 -10.96114 -19.52714 -40.28512 -65.23009 -89.06413 -91.19951 -84.90471 -82.24231 -88.02263 -106.23448 -111.99334 -135.25772 -131.60406 -129.76503 -96.71058 -90.20901 -79.81344 -77.50493 -96.01332 -103.28108 -109.84026 -111.99358 -146.61734 -168.93909 -158.46121 -173.26815 -171.72754 -166.80170 -149.04550 -135.85088 -120.19994 -115.69088 -117.50833 -112.47167 -113.25760 -104.14243 -118.78349 -126.74454 -119.45837 -144.33714 -147.22036 -163.88690 -165.05023 -170.08115 -168.81940 -166.16875 -161.44736 -168.29747 -172.97436 -154.46486 -145.29891 -143.99896 -139.72209 -136.48158 -144.82721 -145.92885 -158.04350 -159.05328 -155.84067 -166.21592 -168.87656 -173.70623 -169.32198 -173.87724 -175.84946 -180.59550 -170.91301 -170.20430 -172.82165 -179.07889 -175.17124 -172.33508 -167.95376 -168.01725 -171.88550 -166.68157 -166.37339 -167.79023 -165.70537 -169.42348 -168.21748 -167.08863 -170.23340 -176.24341 -171.19677 -172.06828 -173.10410 -173.92363 -175.16366 -229.27867 -315.13674 -397.77789 -436.53563 -528.84377 -622.60300 -790.21673 -816.80722 -852.70504 -940.12470 -984.93548 -1017.54522 -1046.03277 -1095.24243 -1136.42598 -1186.11244 -1194.82135 -1193.55400 -1161.03901 -1157.52921 -1169.85789 -1176.55537 -1164.40583 -1158.52853 -1225.99144 -1206.89178 -1254.66178 -1321.43597 -1365.74914 -1476.96154 -1519.84692 -1572.47623 -1641.61378 -1704.92815 -1744.43743 -1765.67867 -1758.85827
424.84802 424.70336 253.90437 135.16999 100.36851 137.33769 165.60013 152.75310 126.31612 60.44583 0.63717 -10.80344 -53.83584 -89.30620 -91.38217 -106.37888 -96.89262 -94.65135 -93.32569 -95.78735 -116.30875 -138.03588 -144.57118 -136.88666 -131.15446 -98.14502 -90.68979 -91.71418 -118.57496 -116.03264 -130.69304 -153.08370 -166.12249 -169.17751 -170.17888 -173.43732 -172.84697 -154.93968 -145.42618 -138.62485 -125.63423 -111.21191 -101.25896 -97.02739 -97.06281 -110.68564 -125.10697 -143.03575 -148.93370 -161.94516 -166.41993 -165.80034 -165.23989 -165.35148 -148.12863 -152.32279 -153.64322 -156.75595 -162.52311 -157.18926 -148.90470 -134.62064 -135.76043 -136.60061 -146.39824 -154.59869 -167.66151 -169.68944 -164.93330 -165.63563 -177.76349 -171.14666 -175.50377 -171.78856 -174.16296 -177.86336 -173.00975 -172.34446 -174.88341 -174.18722 -173.03100 -167.34473 -162.24577 -169.43160 -170.75795 -168.71713 -165.81971 -164.93283 -167.38360 -166.41174 -170.81113 -169.21558 -167.49945 -169.51041 -172.84987 -169.34118 -173.15820 -173.39092 -179.86627 -178.06226 -185.07092 -263.91816 -314.62636 -267.88957 -484.16425 -615.15450 -743.00754 -786.02684 -849.40754 -930.22836 -988.13948 -1000.72193 -1062.26916 -1111.24254 -1152.78146 -1177.25846 -1154.93137 -1147.26175 -1114.49867 -1084.00565 -1092.27554 -1125.31464 -1069.92679 -1103.97725 -1169.83692 -1166.57581 -1180.11458 -1287.80567 -1345.60300 -1397.83035 -1489.74014 -1520.71795 -1603.31380 -1693.76837 -1678.97834 -1678.97645
455.43465 453.50135 361.48143 181.39770 152.21690 177.51676 195.53421 191.83951 151.54743 72.89144 18.51722 -24.15120 -67.69302 -81.61507 -98.15118 -119.92962 -115.38135 -111.09886 -116.32595 -118.84535 -126.74272 -139.55745 -150.14009 -148.18235 -136.41393 -115.31278 -113.50259 -112.43214 -125.95603 -150.45116 -149.94036 -157.14719 -173.11520 -169.28734 -167.75677 -167.13817 -156.33986 -151.63204 -135.47799 -137.49294 -111.40548 -91.03092 -94.40576 -92.32405 -98.06840 -100.66713 -115.39102 -136.61429 -149.21623 -160.24799 -165.82157 -169.66442 -164.05312 -149.58459 -142.63870 -151.89714 -148.90926 -156.78195 -157.57053 -156.64029 -139.10282 -132.33075 -132.21441 -139.99234 -149.69530 -157.59461 -163.51413 -166.20903 -166.19948 -171.38756 -172.61639 -172.73705 -171.41954 -179.01762 -172.22783 -174.82443 -174.78502 -172.70446 -169.38747 -170.64378 -172.06693 -163.99072 -163.26821 -156.48740 -160.11776 -166.44807 -162.35334 -163.57445 -163.60536 -165.95672 -167.30094 -170.51179 -167.93815 -172.59072 -171.38038 -171.76796 -176.09047 -174.20014 -173.70256 -180.32327 -181.93142 -187.65036 -197.51088 -205.98162 -347.83009 -491.69004 -713.64224 -727.69046 -807.08828 -867.76875 -961.71882 -1006.96710 -1053.27000 -1071.55789 -1122.60562 -1127.88853 -1123.23864 -1107.04078 -1060.47118 -1044.51276 -1025.19362 -1020.01832 -1034.15157 -1049.57435 -1053.46144 -1018.87000 -1030.75794 -1112.95984 -1199.38396 -1248.26822 -1348.44592 -1462.55541 -1458.67576 -1593.52871 -1594.60057 -1594.16186
585.81807 582.48586 426.06689 216.38898 216.55810 243.98265 230.35177 182.59428 114.25020 87.49491 13.67648 -32.00686 -72.25927 -86.62056 -94.95145 -107.09610 -119.42066 -125.48331 -130.08638 -139.26836 -139.25280 -161.12346 -155.16938 -150.01319 -135.06978 -133.06039 -123.48301 -123.53155 -131.14318 -155.18075 -156.19585 -167.53743 -161.84095 -163.23355 -156.89434 -156.92912 -150.88856 -136.53386 -118.91887 -97.64995 -108.44618 -85.41409 -87.38571 -94.28455 -95.55656 -102.74415 -116.97338 -124.73379 -125.94485 -149.13158 -170.87588 -158.88038 -158.47314 -143.03461 -144.57130 -141.68970 -140.27567 -138.16846 -139.13612 -145.01174 -141.25001 -130.15131 -124.55195 -131.82294 -144.20578 -156.75209 -161.42825 -167.99627 -162.13343 -162.24032 -166.81404 -165.24021 -168.32756 -167.94956 -172.91707 -173.99634 -174.09042 -166.51692 -167.98992 -170.06866 -171.99903 -162.87685 -155.99457 -156.16827 -158.55555 -161.33163 -156.92676 -166.82255 -162.89789 -171.16788 -170.77309 -168.36276 -172.74379 -173.63235 -175.93494 -173.62862 -170.75536 -178.36142 -173.04360 -178.56606 -177.79780 -180.99523 -182.95366 -200.82258 -305.00268 -406.63871 -585.03105 -622.01086 -753.01555 -783.37877 -862.88263 -942.22246 -1046.55330 -1049.20413 -1071.98629 -1077.42460 -1077.16635 -1054.93059 -1045.24730 -1028.00464 -1027.42365 -996.98389 -973.61043 -971.44500 -970.01254 -1000.19911 -1005.00258 -1001.12329 -1036.47069 -1157.71878 -1279.64741 -1338.48997 -1408.97945 -1428.17926 -1515.40630 -1512.67402
580.27405 581.38316 413.19740 313.06128 279.95752 271.77006 236.29734 169.59965 125.61089 36.27287 7.41406 -52.00249 -56.50297 -79.96904 -96.52820 -98.27760 -114.36640 -119.89732 -135.95550 -139.60474 -156.05895 -152.25080 -157.07051 -165.37739 -154.85389 -150.22046 -136.88648 -139.06758 -145.99145 -157.63510 -164.86362 -163.44499 -160.00648 -151.27199 -157.84440 -134.82117 -128.14181 -111.08135 -97.57754 -86.10626 -87.25382 -78.75103 -87.89507 -104.58351 -103.83881 -108.49693 -119.93051 -130.23043 -135.19998 -150.07507 -154.77534 -164.76543 -156.66591 -141.90708 -127.13566 -131.67642 -123.15094 -128.51754 -126.59229 -136.01389 -129.57374 -129.22307 -125.88166 -132.60910 -146.04399 -157.81640 -149.85495 -155.50750 -154.98253 -155.95815 -163.91693 -164.26019 -164.54585 -167.18232 -168.43980 -170.88166 -172.18315 -166.70191 -165.73898 -166.06400 -158.53988 -150.48753 -146.37497 -146.93101 -150.32571 -159.12683 -162.16324 -160.42236 -165.13239 -160.78917 -167.21414 -170.76851 -168.49944 -173.19111 -170.17702 -173.06138 -173.69807 -171.77564 -174.40965 -173.52363 -176.16362 -177.36309 -179.48598 -184.75752 -203.58756 -252.93824 -403.56725 -494.51990 -589.67973 -695.26897 -690.70391 -902.20613 -965.96905 -979.98509 -1024.60108 -1022.72410 -1038.46213 -1043.92905 -1021.17491 -996.83756 -979.04280 -973.79233 -930.02161 -938.59428 -894.33627 -920.82121 -922.91003 -929.26138 -1005.55478 -1031.35824 -1136.08491 -1317.61883 -1326.95925 -1426.68969 -1431.66955 -1433.37499
533.91255 530.00744 535.14907 245.01319 262.02505 227.02738 140.22203 120.64097 97.94905 79.70769 0.72591 -0.24198 -34.07902 -39.52128 -62.21193 -84.52812 -89.11249 -116.57941 -117.83011 -137.27050 -135.12404 -144.99860 -151.75550 -155.58883 -162.23945 -156.79704 -157.05427 -159.91712 -159.55160 -163.59155 -171.51432 -167.35401 -152.61245 -129.53335 -114.14197 -114.79238 -125.33822 -96.39221 -81.15798 -70.95456 -76.01615 -92.91024 -102.26747 -109.30534 -119.35900 -127.43740 -147.85948 -146.12775 -150.10532 -149.60403 -153.15001 -150.14613 -153.43427 -122.28194 -122.22568 -113.09518 -116.12861 -119.18674 -118.56007 -125.24671 -127.52664 -128.39790 -129.93217 -125.20810 -129.78948 -135.81100 -145.40881 -147.38272 -147.33317 -156.07041 -159.71109 -165.40319 -168.87822 -160.59884 -169.51695 -170.70220 -172.78840 -169.76378 -165.16235 -164.66406 -158.76953 -151.77854 -150.55209 -150.79690 -148.94399 -149.24440 -151.11876 -155.97866 -161.26306 -164.00697 -165.63855 -163.74485 -177.09134 -170.54246 -171.47724 -176.40233 -172.18237 -179.38509 -173.07036 -174.67676 -174.70556 -172.17136 -176.70538 -185.33012 -184.03775 -237.16250 -273.67216 -283.67107 -495.47260 -549.40530 -574.51919 -836.53264 -906.21117 -926.96904 -946.26448 -1004.49135 -1017.93436 -1001.59580 -995.58726 -973.81886 -933.98092 -902.74945 -874.82781 -881.90499 -853.52857 -855.39259 -844.63101 -852.94647 -930.97453 -957.70603 -1020.68280 -1139.59705 -1242.76877 -1312.01916 -1359.04556 -1355.97755
482.98209 482.36328 367.76302 233.67203 180.31699 159.65459 80.33742 95.75536 138.51000 136.06396 90.38036 19.17137 12.08026 -17.37738 -39.36386 -59.67187 -67.75127 -91.41221 -105.08925 -124.64189 -133.23752 -135.40179 -129.45007 -161.72521 -168.34834 -158.18757 -166.86538 -161.92780 -167.11239 -166.51690 -165.51346 -158.44739 -149.42970 -130.55523 -119.77129 -87.05094 -90.18659 -83.43870 -74.94822 -75.82342 -91.01612 -97.85029 -106.67341 -120.56576 -138.27101 -144.01172 -147.98873 -151.32578 -151.11702 -148.26511 -134.57074 -140.32926 -126.42422 -118.69185 -113.99164 -110.45315 -113.80304 -121.47870 -124.02136 -124.49661 -129.42693 -131.73129 -131.88015 -125.56581 -123.47057 -133.34620 -137.94478 -148.22440 -147.76661 -157.61806 -168.90721 -162.18860 -168.93399 -165.66935 -172.01271 -173.55160 -170.49820 -168.27078 -165.13243 -163.44934 -154.69026 -158.13187 -151.03181 -147.58978 -143.89571 -143.22193 -145.67175 -151.05962 -157.33371 -159.72043 -166.05254 -170.78607 -168.00588 -173.13216 -174.13528 -177.74742 -173.96479 -171.90984 -169.12223 -173.28274 -174.13165 -172.80499 -171.59518 -175.74534 -186.92451 -177.35289 -220.76863 -232.78586 -387.91518 -426.40864 -501.85253 -593.90374 -799.84553 -895.46252 -935.11342 -973.03796 -990.42508 -983.22872 -996.12765 -936.78780 -907.62613 -886.33505 -862.29005 -816.21752 -809.34052 -803.12774 -819.36509 -833.18876 -872.33615 -889.04779 -918.10116 -1035.65190 -1148.05623 -1265.11171 -1302.11505 -1294.36597
477.95327 479.22794 323.15165 194.23216 103.33615 53.64604 68.76173 84.42786 147.13712 145.71817 99.34385 48.99280 22.61462 -15.80989 -42.20468 -52.40500 -55.21796 -61.75951 -80.45422 -104.32553 -113.52257 -113.42505 -121.36830 -135.00627 -156.97947 -163.37830 -166.48745 -163.61452 -163.49914 -161.31515 -161.54817 -156.66290 -148.54722 -133.38839 -102.74389 -87.51155 -68.54105 -57.58284 -64.58048 -79.67831 -93.07204 -102.01877 -106.71033 -127.40571 -139.01616 -149.33466 -152.76404 -150.28216 -143.57587 -139.70701 -127.30079 -123.98549 -127.65331 -121.36106 -118.38333 -116.97792 -129.77749 -134.35102 -143.15845 -132.93704 -139.14013 -134.11733 -130.77793 -132.20963 -132.33239 -135.76272 -140.42471 -147.38213 -157.29814 -164.33361 -170.34896 -168.92941 -165.88908 -168.51145 -171.57057 -174.05868 -168.39362 -168.62489 -168.27819 -162.12501 -152.60680 -155.55157 -148.13865 -143.14782 -143.23962 -144.61843 -148.83251 -153.18777 -155.16638 -161.77550 -166.43961 -167.99830 -177.15945 -168.78477 -171.92815 -174.37736 -170.79410 -173.51147 -172.70713 -176.66260 -172.74948 -174.81967 -175.09451 -175.37433 -179.52463 -176.55087 -184.00697 -186.88673 -248.02676 -355.02721 -403.39810 -534.33063 -701.04003 -859.13370 -909.20031 -928.44016 -969.96642 -956.42036 -938.68894 -911.28705 -881.21292 -878.67056 -819.92133 -783.50525 -758.22680 -747.37709 -760.00553 -769.41881 -816.64385 -836.69702 -901.43232 -987.76072 -1049.37146 -1253.44497 -1246.86305 -1254.05726
324.19091 326.59110 358.65370 102.32656 91.17274 48.07395 28.12505 68.80664 125.82253 131.42828 92.18225 76.59876 61.68592 9.50723 -1.31850 -35.14581 -25.43929 -35.84811 -61.39374 -73.01188 -87.43615 -89.84037 -113.42207 -138.85768 -145.73688 -145.94517 -158.61981 -160.78686 -162.80762 -164.99346 -156.79029 -142.46946 -125.24234 -123.41138 -93.56896 -73.27283 -55.52606 -63.72754 -68.42835 -80.16874 -94.74415 -108.98165 -114.91183 -130.62584 -144.40443 -138.31307 -137.71058 -136.06569 -126.37849 -122.38269 -123.87399 -122.63466 -119.94070 -125.49803 -131.51038 -133.65062 -142.66388 -145.58665 -146.08670 -149.86686 -143.38768 -142.56593 -148.40102 -141.24459 -148.50424 -147.93983 -159.93632 -160.51669 -165.84016 -170.62245 -171.29485 -167.09361 -171.77389 -169.54355 -171.57045 -169.61234 -170.58409 -172.72275 -166.94069 -164.04699 -161.06277 -150.52596 -150.33472 -144.30697 -147.79474 -150.05715 -151.21469 -155.55200 -158.60212 -158.56407 -162.49793 -169.60037 -170.53748 -180.64437 -176.45099 -171.14303 -174.28729 -169.71513 -171.78267 -172.02040 -175.10698 -173.36962 -173.68658 -173.42495 -179.00102 -172.83642 -180.29868 -179.16126 -226.61322 -303.13940 -375.79108 -547.06027 -591.39163 -743.86841 -849.74848 -889.19052 -918.07333 -940.44283 -923.72463 -882.30291 -854.32358 -840.87116 -807.53929 -763.30427 -743.69759 -729.38529 -731.65870 -720.88877 -753.92810 -792.65078 -867.98544 -965.28893 -1043.63345 -1144.10972 -1206.27790 -1206.43814
280.00976 280.52539 177.38674 111.21993 68.90940 29.22869 19.45342 60.82138 96.95386 90.17672 86.90391 74.20127 80.65106 36.18500 10.09414 -22.88122 -11.10924 -20.50174 -59.94902 -74.60980 -81.13328 -117.34903 -121.66230 -142.48449 -138.05633 -132.73378 -149.66580 -140.48596 -142.64876 -143.84820 -143.33204 -142.52058 -130.13032 -114.02996 -93.94438 -66.03373 -58.83372 -60.35978 -74.20056 -87.05710 -99.32598 -119.14481 -133.91930 -135.08010 -137.04980 -130.15641 -112.84417 -109.48013 -108.87731 -104.77405 -102.08941 -109.02572 -120.05813 -127.63314 -128.51262 -136.81746 -137.61402 -138.05269 -144.42737 -158.76018 -156.47616 -156.23418 -153.02993 -149.10256 -158.78141 -170.00749 -160.13388 -167.53534 -171.58720 -168.32433 -169.41887 -172.48267 -174.10822 -174.21633 -168.99164 -164.30440 -167.13383 -163.80876 -168.00328 -152.68064 -148.30583 -151.36652 -147.94001 -145.45345 -148.53053 -155.37748 -159.14048 -162.50505 -157.71404 -165.74747 -162.36101 -167.55716 -171.83739 -173.20319 -176.00617 -170.76135 -171.51628 -177.93449 -173.02315 -169.08208 -174.80790 -172.18377 -175.68935 -175.71001 -174.73679 -172.62630 -171.56191 -178.26550 -181.81652 -213.69024 -365.64064 -421.89773 -577.09585 -688.01300 -834.73893 -860.14880 -899.64092 -914.60716 -860.90029 -855.56212 -819.92848 -812.25565 -753.14078 -714.55107 -712.29240 -683.54289 -700.84071 -716.07690 -752.61144 -790.03021 -808.99279 -930.38097 -981.28975 -1126.21660 -1163.79988 -1165.82696
271.25893 272.74470 182.74952 80.88726 39.57669 9.44059 19.77321 51.39716 70.00753 75.30529 54.71496 65.39886 73.21293 61.98748 37.28153 5.76777 -9.88455 -28.65383 -69.38133 -104.12359 -108.16511 -120.03038 -133.97640 -132.62415 -120.80426 -109.10445 -128.30824 -135.90369 -129.48704 -124.31239 -132.65263 -127.94589 -122.33497 -110.19775 -90.29018 -70.67563 -53.10033 -54.85345 -69.81592 -101.23854 -109.06321 -122.11249 -127.53556 -130.21992 -121.02214 -110.55589 -109.98483 -89.49427 -82.18660 -84.20323 -91.84252 -97.83372 -109.37546 -117.42836 -127.02157 -123.35680 -127.77079 -128.71811 -138.96279 -149.18128 -158.74356 -160.09428 -160.49274 -160.92883 -172.58019 -167.70222 -169.74499 -172.23932 -173.41875 -174.51710 -167.43290 -170.53000 -172.01511 -170.99565 -165.85450 -167.02964 -157.95642 -166.34670 -154.84126 -148.68320 -150.66473 -149.12898 -145.59430 -145.87384 -154.43392 -159.22096 -159.54624 -160.25972 -163.28057 -170.76630 -165.61840 -169.50755 -175.36572 -175.17403 -170.64745 -175.05824 -168.06098 -169.46172 -165.66386 -172.08443 -170.04460 -173.72786 -176.26816 -173.61025 -175.97086 -179.31837 -174.29686 -171.20630 -184.59355 -182.02836 -294.25765 -459.58095 -572.05723 -634.49938 -784.39506 -814.96729 -839.55075 -833.07797 -804.19398 -791.50817 -782.86107 -776.22423 -721.65535 -701.46408 -674.41550 -676.37622 -673.60211 -677.91408 -721.28654 -747.34494 -788.87787 -875.11693 -907.50326 -1115.10895 -1116.10163 -1119.67379
339.88199 343.59846 225.08723 98.25282 48.40090 9.69599 6.68084 11.11799 28.92600 26.59537 34.85713 44.43597 54.74586 55.39023 28.43319 -5.67236 -6.04527 -30.78288 -71.31576 -112.88081 -119.01004 -117.61528 -116.07470 -114.25171 -117.03176 -118.89067 -115.20265 -125.26460 -111.05841 -108.95805 -106.36952 -107.04905 -115.14211 -90.04560 -76.80048 -61.25875 -54.81651 -56.37287 -69.84316 -88.65685 -106.14002 -114.16068 -116.37924 -126.14023 -108.03194 -102.36955 -86.90067 -86.42547 -72.75936 -76.55161 -83.22969 -85.41407 -89.84614 -97.94288 -101.24834 -111.22320 -112.18201 -131.32943 -141.46417 -150.75632 -152.34855 -153.41768 -160.38608 -159.15439 -164.70250 -169.07662 -164.12740 -168.08734 -170.34725 -174.01251 -176.90917 -173.97311 -170.15731 -168.68238 -159.16799 -156.64500 -155.06371 -149.75632 -158.30096 -148.23619 -140.70447 -141.73934 -141.10982 -148.36682 -153.97004 -157.95559 -160.41092 -163.51770 -164.86425 -165.89174 -166.25667 -168.16641 -171.01568 -171.80137 -172.98058 -175.54171 -172.13042 -167.84825 -171.07060 -171.15605 -168.97855 -173.25639 -177.04553 -176.16634 -170.51474 -171.30451 -175.30344 -172.73764 -175.17565 -181.41729 -319.50232 -521.25244 -552.68195 -605.76812 -689.39764 -708.57898 -756.60841 -778.88846 -760.05399 -715.36434 -754.13663 -717.59481 -677.98344 -627.57018 -638.25233 -646.22732 -640.18907 -646.68711 -678.49751 -705.23868 -756.05316 -798.95280 -881.16225 -974.07240 -1067.28468 -1067.68324
308.44317 306.53126 211.65727 105.22066 76.31949 26.72367 -13.59298 -10.48632 -18.22109 -5.43282 18.15117 39.75835 63.39492 51.86997 23.07729 -3.67384 -22.98605 -58.54454 -83.74030 -93.00730 -98.66291 -109.39311 -96.63332 -86.71786 -87.89671 -103.54707 -115.39417 -120.18395 -109.31976 -86.82273 -78.81254 -82.61115 -94.73952 -83.26320 -62.92955 -48.88922 -51.13479 -59.05115 -71.81875 -88.90279 -100.28012 -97.63568 -101.53592 -100.73073 -99.44226 -80.98989 -76.02408 -57.99728 -60.83271 -61.73401 -70.16339 -84.83408 -94.37286 -99.94505 -98.30912 -110.06188 -106.43715 -117.10728 -132.55683 -143.06062 -145.36888 -147.98687 -147.64826 -152.86878 -154.68498 -158.65016 -158.13586 -155.49221 -158.66939 -169.60901 -168.71726 -171.30434 -155.80307 -159.45754 -152.35743 -150.74302 -148.19361 -142.45591 -143.73523 -138.43100 -138.06059 -142.92131 -140.52386 -149.92003 -150.66566 -155.43087 -158.52123 -162.43098 -162.87037 -166.19621 -170.73776 -170.21591 -167.70692 -171.62723 -176.24060 -177.83855 -173.07013 -169.26398 -170.20520 -170.35793 -170.17941 -172.24208 -173.46129 -176.11608 -178.69372 -175.99469 -172.56020 -174.30267 -179.69780 -182.44301 -282.36637 -457.99193 -496.20155 -539.93939 -571.32405 -626.29628 -551.08000 -535.05398 -561.20498 -681.62813 -667.88824 -655.20115 -633.24210 -617.21320 -592.48569 -606.39484 -605.22682 -633.67576 -660.19898 -697.54386 -705.92859 -747.61368 -833.08224 -964.80413 -999.97041 -1002.55488
281.57661 283.69614 200.13941 101.85940 84.96398 32.92808 -7.22668 -18.34201 -28.25602 -12.12846 11.40415 54.62237 61.95938 62.89016 54.30048 8.52987 -32.27417 -56.37904 -62.88606 -78.09495 -82.64504 -84.78379 -85.48293 -72.71712 -80.05314 -79.45448 -95.51492 -105.74343 -101.33967 -85.87537 -72.10646 -73.76415 -73.41444 -63.16769 -40.71979 -37.40394 -41.01215 -56.37852 -66.27846 -76.95771 -90.98865 -88.64844 -91.24961 -82.00495 -71.06664 -76.83971 -61.22243 -54.72385 -46.55985 -51.59797 -72.84337 -85.61011 -102.90497 -109.06921 -109.70147 -111.89281 -112.27611 -119.62536 -135.80417 -142.78082 -143.48466 -143.09195 -149.39387 -153.87594 -149.26641 -149.44128 -151.64597 -155.95553 -158.55314 -164.57833 -167.59149 -171.01951 -162.34544 -155.80246 -141.03501 -143.89926 -144.27718 -138.48063 -141.15678 -133.64607 -135.78513 -143.47274 -139.81988 -147.91621 -151.71559 -150.51783 -158.84504 -157.36808 -158.91699 -160.72006 -165.05449 -166.38828 -167.15740 -170.34133 -170.57356 -176.96947 -175.22447 -167.41184 -169.43431 -168.07223 -168.55117 -175.08995 -168.16242 -173.69829 -175.41768 -166.24123 -175.51378 -175.98905 -174.95131 -179.30961 -282.32159 -380.66721 -389.08181 -405.81355 -380.36676 -405.13216 -356.97798 -330.12114 -478.86811 -557.88722 -605.79292 -576.76532 -595.96678 -585.32668 -568.66191 -552.05260 -568.36327 -592.08316 -584.62929 -628.35863 -654.87133 -711.54790 -729.47925 -929.22311 -931.96277 -931.03887
273.96602 276.54964 195.85875 75.64639 46.20642 38.04213 2.52553 -19.77773 -26.37389 -15.23847 1.15622 49.02408 86.52562 73.23438 61.45272 35.51760 -3.24191 -37.92387 -51.54982 -56.55493 -76.71328 -70.75182 -67.13700 -52.51724 -50.36386 -63.01555 -73.62188 -97.56252 -97.58211 -84.67441 -74.13856 -54.21325 -53.98281 -35.71329 -28.03483 -21.81640 -42.28768 -40.75294 -58.09686 -65.68234 -66.65029 -77.35519 -85.43240 -65.66989 -52.68107 -50.45134 -47.18625 -45.86365 -45.30438 -60.83672 -94.08958 -111.29200 -111.58526 -120.98164 -136.26046 -115.52774 -112.86085 -123.53546 -141.75829 -148.96695 -154.90524 -150.28753 -155.24892 -159.13177 -156.03786 -150.46100 -154.17586 -161.69587 -160.46351 -171.01529 -174.90885 -175.59633 -165.48310 -149.86638 -146.74193 -142.45351 -133.87115 -134.77035 -128.76237 -136.30345 -144.18777 -145.29552 -142.09724 -143.52013 -150.52473 -152.97267 -155.82644 -165.42501 -157.80763 -157.69753 -161.85442 -165.63337 -168.46224 -166.91780 -169.38381 -178.96798 -172.36604 -170.21957 -165.12493 -162.35883 -162.93122 -166.67158 -169.08252 -176.82916 -175.44998 -172.31028 -177.28515 -180.25122 -177.09482 -179.12504 -266.26769 -316.46811 -336.36010 -324.78866 -287.62909 -269.12660 -249.45200 -322.58115 -382.83076 -443.98758 -489.96214 -552.57517 -534.62574 -512.58414 -517.07441 -508.31798 -519.45845 -535.36903 -517.62423 -561.72311 -576.26926 -647.83657 -711.74810 -799.57516 -855.38303 -850.21395
223.86971 224.63097 209.35227 82.30876 25.29765 5.11654 -8.22818 -25.01456 -36.01207 -18.26125 12.40884 49.15174 61.81251 74.65453 57.69819 45.85105 25.25811 -4.13018 -13.98581 -36.89184 -49.47899 -45.39435 -47.21775 -38.59764 -38.58196 -41.74243 -57.39274 -88.80613 -86.89828 -78.15536 -59.09317 -31.55266 -28.69007 -15.53801 -15.78793 -27.57429 -39.14133 -48.47488 -49.20522 -52.77729 -55.19086 -61.83852 -67.68596 -50.92384 -37.41965 -48.69984 -44.53477 -43.82560 -54.95899 -85.42200 -106.96817 -119.77932 -115.99196 -131.37443 -144.81971 -135.96063 -133.08025 -128.53627 -145.42066 -159.43169 -161.07680 -167.33373 -167.52302 -163.37464 -159.52346 -158.69198 -156.00459 -158.88299 -164.05084 -169.69980 -171.58539 -168.11735 -163.03393 -147.74978 -142.84241 -141.67295 -128.82558 -130.42552 -135.50278 -138.97729 -148.05682 -150.43441 -146.95120 -151.93949 -151.57139 -155.20492 -160.53098 -156.83413 -161.74355 -163.10288 -166.12529 -168.46438 -171.70691 -169.78630 -173.45836 -173.20759 -166.43584 -168.76386 -168.74168 -163.22265 -167.62010 -165.93367 -169.93056 -170.24455 -175.02131 -177.80225 -174.21834 -174.35375 -176.28750 -178.04697 -212.19293 -243.59123 -280.60588 -258.13757 -248.64749 -226.73418 -240.64907 -233.93347 -350.78699 -416.90962 -455.76551 -488.63244 -474.24441 -474.19646 -458.47468 -467.89558 -476.28330 -470.91932 -505.36950 -506.51663 -548.66724 -611.55597 -659.53150 -757.59853 -775.94202 -780.11680
139.89423 135.85229 159.99935 26.50211 -0.51611 1.92259 -17.43544 -43.04026 -41.23094 -19.69010 12.81169 33.60560 51.30283 42.51473 57.80815 39.44079 31.94679 29.30824 5.53495 -11.63469 -4.75220 -7.79493 -12.70117 -16.12771 -24.86064 -38.42879 -49.80379 -69.21095 -79.57921 -68.41127 -31.41408 -5.11315 2.44235 -13.06027 -27.31455 -37.39869 -48.60415 -52.15153 -50.73303 -45.34336 -46.91371 -52.96510 -57.44360 -49.87213 -51.90491 -55.96034 -56.05789 -64.68003 -77.57726 -88.13536 -113.75603 -118.31308 -136.32166 -144.74749 -155.67675 -139.99012 -137.90768 -133.47710 -145.67343 -153.00212 -165.56164 -171.27529 -173.98559 -168.98468 -165.09369 -165.99175 -168.14879 -167.55981 -169.95503 -168.18492 -169.71722 -159.91090 -148.34702 -133.26188 -134.99661 -133.47487 -139.39874 -137.47247 -135.56210 -145.58255 -153.50378 -156.40040 -160.55759 -156.25119 -159.08123 -162.89318 -163.52655 -163.03795 -162.06623 -163.86782 -171.54679 -171.58607 -176.36704 -172.25308 -174.06387 -168.98385 -173.75883 -165.23245 -163.73379 -167.76143 -167.45760 -173.57648 -173.44541 -175.21084 -169.51595 -172.77769 -175.13638 -177.24669 -176.75446 -180.72981 -203.99348 -221.86867 -224.74388 -204.55913 -194.16186 -201.41002 -197.24355 -211.37125 -225.79244 -270.76800 -382.68324 -410.57822 -445.69021 -433.77670 -452.46874 -438.03598 -431.63736 -439.61114 -456.22084 -472.59321 -494.98465 -517.96829 -578.90342 -634.25426 -705.71017 -700.67680
114.53418 113.43889 66.50598 1.99806 -8.95666 -11.76167 -28.75183 -38.10961 -38.79237 -33.41229 3.13057 16.03104 41.95221 44.77525 54.69353 59.69976 44.69659 37.80482 57.40485 55.32637 60.94900 15.08768 25.92738 9.84414 -11.72093 -5.21157 -17.82395 -39.47726 -35.57095 -18.64213 19.19696 21.05342 16.72111 -4.28336 -26.96047 -63.29538 -65.82724 -63.86597 -51.81928 -56.65600 -57.11089 -60.36541 -63.53127 -64.12518 -62.00452 -66.34261 -77.01455 -93.90915 -94.89680 -106.36567 -117.68349 -135.98723 -138.22919 -144.39944 -152.38748 -146.04006 -147.98974 -148.23150 -153.16077 -162.74762 -158.47550 -164.76443 -166.17493 -161.93233 -162.80444 -165.76046 -172.68309 -170.65918 -171.21276 -171.90021 -160.36143 -160.03928 -146.96380 -138.07414 -136.94936 -135.15732 -132.47558 -141.79151 -144.08931 -150.35323 -158.40323 -162.31384 -164.59295 -160.22066 -164.57453 -169.96504 -174.94924 -166.96359 -166.70757 -169.91639 -169.93671 -174.31492 -172.58987 -168.44415 -168.23404 -169.35281 -169.50806 -167.43585 -161.56434 -162.76803 -164.09411 -175.50680 -174.10020 -179.74076 -173.03596 -173.01011 -176.92536 -168.13308 -174.02972 -175.38012 -175.23789 -196.74871 -201.54205 -175.86740 -182.38124 -178.12278 -178.51263 -189.75231 -216.11438 -296.88194 -329.17990 -386.90968 -395.94951 -400.83702 -416.25797 -412.53430 -411.20062 -427.00012 -447.89204 -466.69473 -473.25991 -506.21460 -553.45728 -621.23728 -632.31482 -633.56470
112.79098 108.70932 64.12892 2.07130 -19.36103 -31.01360 -37.90251 -42.81143 -44.19043 -34.60426 -18.90895 22.10932 30.80167 28.07727 26.07847 36.54641 46.64948 62.17074 88.77266 98.33250 72.80949 35.58540 31.43955 22.43806 14.42973 22.87626 8.45004 -6.22975 -9.02815 36.41827 38.00458 29.68484 -0.64536 -4.87453 -37.76116 -77.84922 -82.46587 -76.03920 -58.54090 -60.29832 -76.34318 -76.34869 -91.01836 -73.63197 -66.66705 -72.16247 -89.65644 -104.83351 -120.38496 -120.84442 -132.69739 -138.33788 -135.99550 -146.09793 -157.65850 -160.64903 -161.25329 -159.94894 -157.44089 -163.10882 -158.99616 -149.68014 -151.04313 -157.39944 -159.47522 -167.50579 -166.90258 -172.42426 -166.18822 -156.66721 -156.36798 -150.72489 -146.78186 -127.62924 -132.55095 -135.09225 -132.97409 -140.21353 -145.23323 -151.41601 -160.23115 -161.96629 -165.27728 -164.63711 -169.70661 -173.29007 -172.69355 -166.82535 -174.84892 -173.82377 -169.94400 -172.22208 -165.29799 -162.95204 -169.41445 -165.48894 -160.92664 -160.26084 -159.23408 -167.28279 -163.08115 -179.13106 -174.36327 -172.36750 -173.20450 -171.40637 -172.29308 -171.97587 -177.00004 -175.02171 -179.18687 -173.00115 -177.04833 -177.03599 -174.01855 -175.74073 -179.41682 -175.87617 -221.84403 -240.60898 -307.60505 -344.89584 -348.92526 -366.13023 -372.86712 -393.96297 -397.47840 -422.42941 -423.98905 -435.27164 -456.74529 -502.95178 -517.21542 -572.79556 -588.76949 -590.57959
114.49109 117.69530 60.92696 -18.40183 -23.72394 -45.67178 -47.89182 -48.19455 -47.68196 -29.61871 -21.16396 4.18899 7.40535 7.76708 10.08433 7.63715 61.64275 84.10497 90.78814 104.95501 79.96113 49.36307 31.97633 13.51525 13.26872 18.68806 15.04864 12.60861 17.03193 43.61179 56.08199 19.45092 -25.67717 -37.27995 -67.74819 -91.00662 -92.04135 -89.70391 -92.07219 -90.89897 -97.24152 -99.97624 -103.96805 -90.88521 -96.65625 -92.55688 -108.33946 -129.24699 -137.74593 -139.87891 -140.75445 -139.91515 -133.61183 -138.59473 -148.81132 -155.27991 -157.28944 -161.82625 -164.34047 -162.20993 -153.68240 -143.21266 -139.94405 -153.09690 -161.29841 -162.55641 -170.18604 -158.70357 -150.52934 -145.65859 -149.61652 -147.13046 -145.03033 -133.91222 -130.27207 -133.08550 -134.53356 -139.58970 -147.16618 -142.86031 -152.21924 -163.49293 -160.64825 -164.68106 -165.75721 -170.52340 -172.61082 -173.78214 -173.73941 -168.62186 -172.49495 -164.55641 -168.04530 -160.22300 -163.33894 -158.62119 -161.72327 -158.61118 -162.45647 -163.53318 -164.51321 -172.15751 -173.34536 -169.08440 -174.33628 -171.99719 -172.10679 -173.87738 -172.82357 -172.85622 -178.21637 -178.88941 -177.13919 -175.48144 -176.30783 -174.25371 -177.40134 -175.54706 -200.67075 -224.22651 -277.66970 -280.73899 -301.99331 -329.55210 -345.19338 -355.58780 -372.54358 -390.64156 -403.95214 -432.83515 -461.17475 -477.00819 -503.17602 -535.44758 -559.17405 -562.27905
117.70772 115.59947 72.54650 -15.95396 -33.86883 -40.59681 -51.08004 -58.15187 -50.74198 -33.39638 -28.89795 -22.20965 -21.93119 -16.76172 -12.48534 11.42428 27.97850 77.27362 79.28003 72.81476 51.01177 37.39374 21.15777 -2.21130 -5.46333 -2.45235 15.60192 11.65093 27.23519 47.92059 59.75205 40.67546 6.13807 -54.89298 -69.07680 -86.97519 -97.09413 -111.15751 -97.64066 -100.69308 -105.42762 -113.38975 -114.02927 -107.14313 -100.88639 -118.20717 -123.82880 -129.76135 -150.77315 -149.70506 -156.30606 -147.98296 -142.07232 -150.58712 -154.83852 -153.06935 -154.14075 -156.01091 -158.20953 -153.65485 -147.43160 -136.45824 -131.11818 -144.99730 -154.79691 -160.63599 -156.68531 -145.56731 -135.88611 -141.38235 -133.79990 -129.47071 -128.12087 -125.47926 -136.14910 -133.52278 -140.35796 -143.26118 -144.99603 -144.93026 -150.19132 -154.23407 -154.81832 -164.08405 -157.63066 -160.27961 -163.44589 -173.40568 -166.96600 -163.95720 -162.64959 -163.74708 -162.51729 -166.19033 -158.71953 -155.39087 -158.83812 -158.28484 -166.10167 -168.73577 -167.70566 -168.56982 -171.60745 -166.45796 -172.81951 -169.17108 -175.83347 -170.84774 -176.36414 -169.69446 -171.27168 -175.60817 -170.60319 -173.73225 -170.30013 -175.68838 -178.46269 -183.29391 -196.55107 -213.41688 -232.58541 -231.60784 -259.16233 -277.83943 -323.15455 -331.60255 -363.90821 -377.15798 -400.95321 -431.07037 -446.97635 -481.34916 -501.91756 -561.96270 -548.69869 -548.90154
173.04765 168.04142 88.89391 -17.70169 -19.62241 -46.97504 -54.57262 -56.18526 -46.39191 -59.34642 -51.56354 -42.09125 -38.59652 -47.26593 -21.80843 -4.85958 17.63121 29.31500 20.05824 8.56569 0.50039 -0.25479 -23.51600 -32.53237 -34.66289 -12.52812 -3.57561 3.88001 20.34642 34.52153 66.41187 32.68952 -3.21231 -53.48306 -62.14838 -85.21997 -96.43116 -106.77142 -107.46662 -116.02366 -119.48838 -130.39862 -127.38631 -129.55216 -127.34075 -136.59861 -141.00491 -148.29950 -151.14922 -157.84901 -161.17481 -153.71842 -154.38541 -159.68972 -154.62882 -148.71422 -137.10611 -141.80373 -143.66246 -157.87109 -137.02136 -132.95743 -126.85639 -136.85902 -146.97899 -150.90275 -146.21752 -142.99944 -133.56393 -137.48499 -127.19064 -130.20200 -131.92475 -132.70875 -141.71124 -143.81101 -150.02402 -146.86721 -151.04800 -147.04965 -155.44664 -152.70710 -155.89834 -160.94160 -163.94646 -170.56377 -172.70219 -168.89474 -159.23522 -164.31093 -155.65475 -165.08609 -156.83505 -159.58904 -161.83423 -161.80960 -161.87667 -163.65105 -164.87096 -166.32978 -165.64397 -166.10128 -170.89225 -170.64882 -172.96636 -171.15463 -166.54289 -172.16984 -176.59872 -171.47942 -171.34243 -174.76375 -172.16695 -172.26674 -171.85303 -172.70903 -175.06100 -177.64449 -178.10417 -185.42424 -202.51196 -209.23988 -228.43361 -250.42648 -282.89673 -294.42887 -313.18594 -358.58690 -378.20084 -434.48926 -449.54594 -489.78807 -533.98466 -580.38618 -577.25809 -574.79224
136.30391 135.30872 86.54882 -13.51093 -18.17623 -40.59177 -42.71898 -49.37502 -43.07761 -43.53698 -61.39267 -55.50408 -54.62483 -52.54910 -32.88066 -24.06787 -8.71346 -18.61923 -16.85925 -13.60376 -6.13303 -23.45649 -43.65629 -44.86941 -47.13769 -35.69077 -7.29617 -2.81037 -6.88490 6.73292 38.12984 27.45402 -7.50583 -48.66771 -62.14460 -83.49559 -77.22490 -104.09754 -101.12722 -111.22780 -111.40531 -125.79713 -128.55244 -131.97219 -139.90176 -138.92366 -142.78096 -145.00402 -150.62434 -154.96312 -155.22866 -153.53065 -154.81843 -154.35552 -152.63374 -149.14195 -127.77721 -137.02984 -136.46418 -140.00157 -133.44088 -126.07260 -122.02961 -124.38571 -144.36559 -138.16588 -137.22516 -134.49678 -137.63595 -127.81378 -120.15408 -120.75197 -134.12994 -139.68994 -140.48425 -145.36242 -150.83603 -155.30915 -154.07140 -156.41274 -159.70403 -156.77906 -153.24118 -160.43740 -164.52183 -169.68603 -170.59046 -164.88523 -161.33665 -159.33797 -157.89239 -160.59582 -162.66689 -164.63356 -161.36060 -169.33408 -170.99288 -171.11085 -168.97520 -170.61997 -168.43109 -165.17596 -173.05656 -172.17572 -172.75843 -165.76159 -172.70922 -173.47819 -172.33791 -175.82453 -172.54384 -173.23089 -176.79032 -174.39765 -169.35117 -169.16742 -174.23592 -175.95556 -180.58146 -195.17254 -194.76481 -199.37281 -205.43386 -244.85661 -255.52392 -273.63100 -294.28117 -308.82108 -378.78716 -402.98028 -438.40507 -545.73896 -555.72213 -589.02906 -643.39380 -639.35498
177.24175 177.11714 170.66244 22.01184 -13.41015 -21.92049 -27.80409 -29.28705 -29.77332 -42.49136 -51.32735 -59.64740 -60.30901 -58.68031 -35.73450 -32.17558 -22.87323 -24.27711 -35.33136 -22.75397 -6.32161 -8.66589 -35.51582 -51.66713 -56.10681 -39.31798 -33.30364 -32.46545 -31.81227 -4.74622 30.55386 0.09670 -6.77911 -32.91929 -56.49948 -52.04037 -31.36697 -60.73400 -72.94969 -86.56996 -89.21816 -96.60230 -115.83338 -115.37461 -130.28512 -136.50535 -133.38122 -137.13264 -142.90900 -142.06401 -125.44253 -132.53290 -137.04356 -150.69993 -141.27218 -129.21839 -132.49491 -125.46438 -114.39101 -126.32924 -136.15593 -118.96072 -116.12091 -120.41491 -133.79964 -134.00225 -130.26206 -119.90789 -123.64855 -124.51479 -124.89240 -127.58135 -130.90888 -136.63580 -139.30574 -139.10073 -141.91737 -149.94353 -148.38724 -149.32529 -165.28666 -163.44281 -159.93395 -170.86404 -168.30238 -168.09907 -169.60491 -166.30784 -160.12608 -156.63451 -159.43716 -166.63893 -168.29669 -170.29605 -171.37591 -172.36968 -176.07613 -177.73607 -170.94167 -173.12692 -168.32489 -172.84587 -171.51105 -169.85248 -165.40139 -173.27309 -170.39673 -171.74727 -171.65791 -177.20223 -177.65360 -169.35222 -175.22875 -170.33705 -176.58769 -174.03645 -177.46401 -173.17606 -174.46984 -175.89550 -185.34629 -177.67471 -198.77903 -214.91068 -243.19708 -233.51567 -272.56451 -298.25649 -363.08471 -402.56870 -469.01050 -543.91910 -604.47848 -641.65279 -681.79358 -678.56485
177.20245 180.92700 179.99539 26.06955 -11.75017 -11.43958 -18.40863 -23.38128 -37.06357 -39.99953 -61.71071 -67.69015 -68.76708 -61.16156 -52.78197 -51.54253 -53.25816 -40.51455 -38.10525 -17.74067 3.21925 9.24105 -26.35535 -50.60588 -62.10797 -61.17868 -52.64515 -50.34511 -46.82244 -23.27550 4.61568 7.25959 -3.99634 -20.37519 -35.35324 -39.61573 -27.17459 -30.85297 -48.33942 -59.36502 -68.27636 -80.05235 -102.68439 -117.12803 -121.06668 -121.79175 -119.25077 -120.29945 -130.08472 -131.88851 -124.93093 -108.86274 -113.21821 -114.28094 -116.85100 -120.46005 -117.57973 -104.46573 -111.89140 -119.95432 -118.69144 -119.93203 -97.04116 -108.30099 -122.50505 -121.85585 -116.88445 -114.35695 -112.67507 -119.87034 -123.17635 -123.98449 -134.68859 -135.69244 -134.33112 -130.54989 -136.56845 -136.08776 -147.88001 -154.51879 -161.15012 -159.78636 -168.19894 -164.33779 -165.09367 -165.09384 -163.24401 -162.50917 -157.87913 -160.43199 -169.01747 -172.26411 -171.55743 -172.24852 -169.58079 -173.13026 -174.22943 -172.75357 -171.78728 -172.90893 -173.61143 -169.90520 -175.47218 -171.43867 -177.22572 -171.42087 -172.92463 -174.03048 -172.14116 -177.19371 -172.70560 -174.14750 -176.35237 -174.53210 -172.74097 -173.34322 -169.06644 -178.90780 -174.69025 -171.28345 -176.21183 -180.72458 -192.76979 -206.05987 -210.20545 -219.88339 -242.77544 -273.38091 -323.57185 -384.19184 -473.83818 -530.23258 -593.80593 -643.65824 -644.25453 -649.77394
179.82357 185.03573 108.92058 35.44550 43.19259 -5.31722 -5.61615 -30.34894 -45.13571 -49.40642 -66.95327 -73.69925 -73.61327 -70.73284 -64.87957 -62.66575 -64.51455 -45.74237 -33.13720 -15.09121 0.14007 0.42940 -3.32417 -33.37838 -54.78336 -71.15011 -63.13443 -64.93291 -55.10048 -20.72274 0.81974 16.28012 -1.47488 -1.95605 -2.15877 6.95017 0.68842 -13.95415 -29.60698 -46.61981 -55.64903 -75.40866 -101.79972 -108.76102 -107.56756 -101.97043 -112.81156 -118.12264 -124.86189 -124.63331 -114.17297 -100.38767 -89.60656 -94.40166 -107.48574 -109.74027 -95.64200 -99.70699 -97.10607 -99.93537 -98.46791 -94.91609 -89.10618 -98.73889 -107.29760 -113.28957 -108.62438 -112.78782 -116.02825 -123.62966 -124.85787 -128.81201 -129.46381 -130.90237 -131.13367 -128.57929 -132.51631 -132.43059 -144.31740 -152.19274 -162.45869 -157.32558 -158.52113 -161.69872 -160.20862 -161.60625 -163.69967 -166.18573 -162.40625 -165.81116 -162.97285 -171.63157 -171.86677 -177.38054 -170.73365 -173.18116 -174.06884 -176.44649 -172.38427 -173.00571 -177.05998 -177.72380 -171.50882 -172.18422 -178.91051 -172.86365 -172.05918 -180.45499 -171.84983 -173.58569 -177.90452 -181.03929 -172.80276 -175.46383 -177.48676 -174.05557 -172.44851 -175.01252 -178.26044 -177.47552 -169.00836 -174.11739 -183.74291 -187.29843 -190.82419 -193.12241 -213.84074 -255.93363 -291.41448 -322.25209 -427.47303 -526.83210 -547.10454 -613.35189 -609.09205 -612.78254
184.11842 188.02288 105.32058 76.24921 77.36277 39.45238 -2.02354 -21.05231 -37.18687 -47.66582 -56.18770 -64.67322 -73.69449 -71.43791 -76.77695 -73.49662 -74.01866 -59.28830 -37.61597 -13.81280 -15.29421 1.84771 -22.93506 -39.41623 -52.84088 -66.78308 -64.76930 -56.34160 -29.09894 -8.43514 -3.73090 5.18098 -5.97189 -12.48551 3.34054 9.79663 7.67509 1.29066 -4.84509 -19.91839 -51.24603 -70.33925 -87.94847 -90.88221 -85.31534 -79.96520 -89.58950 -102.82563 -110.29719 -111.41364 -111.95982 -98.04649 -91.24968 -86.59211 -96.94613 -97.30303 -99.80136 -90.99588 -92.71769 -89.48729 -95.97449 -87.17832 -83.61481 -95.34934 -105.23093 -112.17864 -109.48827 -120.07871 -118.52948 -118.45799 -120.85603 -122.16207 -126.42493 -128.67617 -122.94711 -124.51351 -129.94290 -135.28392 -144.32580 -149.78202 -162.02530 -165.81158 -165.97742 -159.15511 -163.10275 -164.77513 -170.13103 -163.85962 -165.30198 -165.47474 -170.76994 -173.30869 -173.35786 -181.34087 -173.24470 -176.03446 -175.79486 -175.55613 -170.57372 -173.47801 -170.17301 -166.15687 -175.30761 -168.86238 -176.30286 -171.21473 -173.49675 -172.05903 -173.74110 -172.84268 -176.44558 -170.48538 -173.91218 -180.17757 -175.80104 -176.64749 -174.31850 -174.13659 -172.53586 -173.23658 -179.92047 -175.15128 -178.63530 -175.74245 -173.76107 -175.61612 -195.99182 -234.61541 -244.65729 -277.80388 -387.79425 -491.15500 -527.63167 -553.36949 -564.82469 -567.75333
246.53846 246.04110 202.68555 95.34231 128.22730 88.92490 48.27385 1.67300 -18.48195 -35.61018 -47.06813 -51.24154 -68.49890 -65.59127 -73.40627 -82.45193 -80.03280 -70.65005 -52.47504 -34.48047 -28.23295 -26.08411 -32.53693 -54.73359 -63.62185 -66.39492 -63.20898 -40.54709 -31.38214 -12.82101 -4.76200 -8.35377 -22.33881 -19.56295 -14.87540 9.23064 6.80725 7.28730 0.71102 -11.82959 -19.30930 -53.28172 -74.32318 -84.37060 -65.45861 -57.55053 -67.71200 -78.54519 -89.99555 -93.91709 -99.61543 -89.83285 -84.42230 -85.76552 -88.46664 -89.49891 -92.59764 -85.76466 -88.95815 -90.42089 -86.80070 -87.67533 -87.65539 -90.74249 -104.20206 -103.81514 -107.91216 -111.34984 -110.39423 -115.68262 -120.57183 -124.60127 -124.99336 -122.24875 -130.17584 -132.17933 -135.14052 -139.50999 -146.88297 -153.79609 -161.14228 -169.00516 -168.06300 -171.78806 -167.45730 -165.78182 -173.75908 -174.42316 -170.84997 -175.50704 -173.21751 -169.66707 -174.11163 -180.52190 -173.97818 -174.69406 -169.67404 -167.24876 -170.22056 -167.79412 -166.44421 -175.85342 -173.05517 -170.91324 -173.08893 -171.15774 -174.18467 -169.37240 -173.13860 -172.02856 -170.71213 -175.25840 -171.27567 -174.06874 -173.40520 -173.30558 -176.98149 -167.85423 -177.65144 -176.41982 -170.17910 -176.17159 -179.84099 -172.74692 -174.95264 -170.64026 -178.55712 -202.13919 -235.71056 -267.32559 -370.71666 -434.98313 -437.86472 -493.05635 -504.26147 -506.71883
323.84313 323.35934 226.74524 135.18628 141.64352 99.86951 53.02743 24.65556 2.91204 -13.50263 -16.63045 -32.55510 -49.64199 -60.10205 -71.98449 -78.97578 -78.42994 -74.24617 -56.91363 -48.52937 -46.80347 -52.88412 -52.01769 -59.46008 -70.11127 -76.23849 -59.71247 -43.28880 -32.72511 -24.05668 -24.43870 -25.06648 -29.49115 -27.42875 -20.64151 -17.23674 -8.42236 -5.93169 2.82550 6.25361 -8.40418 -38.38900 -65.94548 -63.40031 -63.75352 -47.83519 -50.14280 -62.88987 -69.04845 -77.34653 -82.92175 -77.60507 -71.63506 -77.07505 -81.14024 -91.96516 -89.12238 -94.00557 -92.52890 -91.29526 -94.23785 -87.56894 -90.19529 -85.17042 -92.42828 -97.30889 -97.92602 -109.30623 -111.78663 -118.79915 -124.66109 -123.22823 -132.54986 -134.99718 -131.35012 -135.18509 -135.69566 -146.66785 -149.88894 -156.22313 -165.62732 -165.89290 -167.57602 -166.27063 -169.52937 -164.88792 -167.76905 -170.86462 -175.39861 -182.25129 -171.81993 -176.43665 -171.25019 -168.15786 -171.21210 -172.45573 -167.80789 -164.90093 -166.40686 -166.01817 -167.87089 -166.41549 -168.57678 -174.73735 -173.75644 -171.59435 -169.49782 -171.39070 -170.53926 -180.73088 -173.66048 -173.17326 -172.15457 -173.00220 -175.93929 -173.49587 -177.61063 -174.97186 -171.13355 -170.83523 -175.26617 -170.69266 -170.88553 -171.61761 -170.05470 -169.69279 -175.42972 -190.00915 -199.03876 -265.91243 -296.01664 -387.30982 -382.31913 -424.71813 -439.89950 -438.88322
337.32508 335.10750 329.39862 163.63008 153.61998 118.98622 62.57992 31.00257 6.14561 -8.05112 -20.56681 -30.62782 -42.13775 -66.08266 -66.49069 -82.43398 -84.95196 -73.70961 -66.77425 -55.06316 -54.14919 -67.44708 -72.83877 -74.70437 -79.82566 -74.06134 -60.35356 -32.27637 -32.65318 -27.68422 -39.52184 -51.41328 -47.29444 -33.99803 -39.32146 -40.89596 -39.28124 -30.46957 -13.78210 7.67077 11.67939 -12.47296 -34.87548 -39.26761 -46.19206 -46.03592 -50.06788 -54.65095 -53.02478 -68.31695 -60.97022 -77.45869 -78.90947 -80.58061 -86.92298 -94.08201 -87.61816 -98.28467 -100.13013 -95.67146 -102.39112 -106.27112 -95.13400 -88.80467 -88.30604 -97.04153 -96.47787 -109.11098 -112.00793 -120.16303 -125.03219 -132.15079 -133.36874 -146.45502 -153.95647 -142.41888 -151.88064 -153.98889 -164.83815 -160.98863 -163.41579 -162.37103 -157.57255 -162.26736 -162.99201 -159.71818 -159.47033 -166.34672 -169.10184 -169.22957 -168.60497 -165.25753 -164.99579 -166.47507 -169.99150 -169.31572 -166.80875 -159.65307 -166.18105 -164.38435 -162.28754 -174.05067 -169.01209 -171.53612 -170.55669 -166.99243 -168.35037 -168.21734 -169.90518 -174.10891 -174.46749 -175.11586 -172.52335 -175.51612 -171.51282 -180.04337 -180.65025 -180.75429 -175.07486 -168.72380 -170.85152 -169.38409 -167.67092 -171.68636 -174.27790 -174.94094 -170.03192 -173.00752 -191.45761 -204.82843 -227.50033 -303.41657 -315.17687 -374.33647 -371.01790 -370.76351
329.77770 327.27840 251.67462 198.13923 152.54019 95.39162 21.43153 -2.01434 -5.47475 -11.07910 -23.33310 -29.60228 -37.09284 -55.03812 -68.84278 -80.60916 -79.19502 -81.89989 -78.20590 -70.39044 -71.89497 -78.13587 -74.76767 -82.48526 -77.41498 -65.31035 -49.70438 -33.96114 -21.24615 -35.47060 -52.83870 -57.54581 -53.73038 -43.28512 -43.99659 -52.04910 -56.34383 -49.29004 -17.19034 3.04916 11.54465 2.49378 -20.42262 -24.61576 -37.96043 -40.24924 -46.99468 -53.08280 -60.33233 -61.41270 -68.63837 -73.02175 -93.04865 -91.64633 -98.79280 -95.21862 -104.61696 -106.56110 -107.77497 -110.47286 -113.94508 -108.92597 -99.72604 -87.03163 -82.63053 -88.46646 -102.75622 -114.01723 -120.89841 -125.63753 -133.57136 -139.91724 -143.88785 -145.85273 -153.64901 -157.03962 -155.64740 -160.59629 -159.45196 -164.43848 -172.15783 -163.78370 -156.25648 -152.65350 -156.93433 -155.07245 -158.65468 -163.61991 -166.02040 -164.85207 -164.64974 -164.13734 -161.53525 -164.39557 -170.87218 -169.58872 -167.93019 -158.96797 -157.88695 -158.23533 -163.62739 -162.45999 -160.64166 -165.02137 -166.12381 -165.30195 -165.58940 -168.63151 -170.67428 -172.68058 -173.57567 -178.36170 -174.16338 -174.75350 -176.20823 -177.99300 -173.47179 -172.93355 -170.71408 -176.12261 -171.97901 -167.89877 -170.79549 -164.82920 -169.77735 -172.85641 -173.30248 -173.12115 -171.72762 -176.71812 -174.22901 -218.26514 -232.93590 -271.78140 -300.32683 -301.76065
