681.04014 681.14014 642.88757 346.22034 345.28900 362.67489 367.64806 319.31566 239.81625 218.13940 217.70763 131.57300 133.23751 159.14414 115.38465 37.91401 16.05648 62.80986 96.63342 77.67173 75.28265 149.95275 198.55632 221.59988 213.50744 179.89417 150.59451 113.31221 89.71633 90.83608 69.77488 33.26544 14.39673 -9.31343 -27.94994 -46.01361 -50.88337 -59.81892 -53.25305 -54.31308 -40.33599 -46.64917 -49.93885 -54.45557 -48.60634 -45.68524 -42.05939 -42.36146 -46.50090 -48.21858 -51.99584 -55.61102 -57.35836 -62.42415 -63.57554 -68.01059 -78.23388 -81.41694 -79.79783 -73.91035 -71.25765 -69.41514 -70.06827 -71.95384 -75.38352 -86.45619 -91.07263 -91.47069 -89.88870 -87.26388 -86.03702 -90.56084 -92.16230 -94.11405 -99.19321 -93.33561 -93.91459 -96.97710 -103.63678 -106.01964 -113.62350 -118.22734 -122.23072 -123.67360 -128.33824 -131.47324 -134.91255 -138.80384 -141.66044 -142.65183 -143.13235 -144.45419 -148.84136 -152.50133 -167.39240 -178.13232 -210.88052 -435.49761 -710.05147 -725.12108 -881.43181 -996.66018 -1076.14638 -1085.28303 -1093.18689 -1088.26415 -1085.90670 -1073.92486 -1066.18333 -1050.58845 -1063.86090 -1110.89398 -1174.85944 -1225.31143 -1371.02620 -1434.96916 -1448.43204 -1512.30988 -1544.77465 -1616.52262 -1619.60503 -1637.94572 -1655.40177 -1708.75241 -1714.19720 -1778.36282 -1825.37103 -1830.60393 -1934.77181 -1976.83169 -2003.38781 -2028.02815 -2019.74545 -2036.82500 -2040.97431 -2041.07431
650.14113 650.24113 530.31562 399.09747 363.98720 398.06906 459.65132 446.12576 335.20795 287.42051 235.46200 213.91937 172.60634 159.97721 112.04012 38.44236 0.64703 19.83482 38.33531 46.20268 46.79096 145.50185 163.43468 194.35808 191.29581 209.01366 180.65014 144.70258 137.21124 130.22589 84.27879 45.45625 8.01742 -15.45893 -31.73228 -51.91188 -59.19064 -49.35712 -43.07999 -31.84729 -32.10346 -27.04980 -39.87644 -42.83794 -42.79471 -42.03287 -42.31781 -43.95735 -45.73773 -48.59793 -49.04500 -49.39341 -51.52498 -57.36897 -57.34495 -66.04122 -70.40233 -70.40071 -74.35580 -67.63662 -64.48581 -65.10804 -67.06979 -69.69295 -74.41348 -77.24814 -78.93562 -80.84292 -83.39184 -83.27130 -83.50331 -86.61756 -88.10394 -91.80693 -93.18956 -92.24649 -91.12420 -95.16216 -98.20107 -103.61516 -113.56073 -120.82777 -122.83227 -127.77172 -129.19305 -133.38299 -133.86312 -138.81535 -140.14964 -139.30333 -141.50492 -144.36486 -147.50685 -151.27275 -154.22949 -154.92285 -202.45262 -342.66812 -569.14962 -726.67070 -819.43063 -901.19352 -1044.19267 -1062.21469 -1056.34953 -1075.12831 -1066.88081 -1071.97652 -1062.51666 -1053.07862 -1078.18625 -1127.07351 -1182.12530 -1193.61901 -1271.45260 -1370.60960 -1382.57439 -1397.06282 -1402.71823 -1396.71728 -1476.15434 -1504.52147 -1541.60055 -1604.98583 -1648.70449 -1719.09222 -1740.68940 -1804.45112 -1851.38499 -1909.00182 -1935.36178 -1945.95158 -1977.11877 -2012.23853 -2001.05453 -2001.15453
673.58058 673.68058 530.82199 375.84271 421.54645 483.99926 524.05999 525.71930 429.61377 379.45276 291.24166 259.76862 219.79618 149.93932 137.88322 83.32019 29.48509 11.78539 0.27952 -3.81416 1.93305 66.72539 132.01408 155.38318 195.66135 196.81043 201.92456 195.75685 187.29906 165.33505 111.15132 32.42010 10.95096 1.45404 -28.48196 -48.95087 -58.58842 -43.21563 -31.24349 -17.58306 -18.07039 -24.52811 -32.82413 -36.54849 -38.46162 -33.29835 -36.44035 -40.08233 -42.22740 -41.78344 -41.60302 -43.66509 -46.78067 -56.14879 -55.78582 -60.36878 -66.82623 -71.12396 -63.31597 -60.60063 -59.68613 -62.22290 -64.44608 -66.76146 -70.74528 -73.81444 -77.97077 -80.77236 -82.53709 -83.33175 -83.52512 -86.52427 -86.68341 -90.22221 -93.47937 -95.08429 -96.12181 -96.32287 -97.73382 -106.19982 -115.83536 -122.27513 -123.82875 -127.24719 -128.62863 -127.04766 -130.32124 -133.20982 -135.93599 -137.01317 -140.89936 -143.58906 -146.76532 -150.43018 -152.00151 -154.28787 -177.78237 -191.42370 -426.16254 -553.38364 -757.98183 -854.71748 -943.03578 -1016.87558 -1038.24824 -1044.61532 -1066.28938 -1063.57007 -1060.44081 -1064.58509 -1063.99562 -1117.95217 -1140.43219 -1211.33427 -1259.73569 -1309.89894 -1310.55710 -1342.23426 -1323.93934 -1365.56197 -1388.10985 -1425.02231 -1493.20865 -1493.32945 -1517.07376 -1600.23921 -1699.58641 -1730.03768 -1759.96822 -1775.04592 -1834.13353 -1895.61428 -1900.50318 -1950.34467 -1952.79782 -1952.89782
825.40458 825.50458 644.65166 433.08156 512.69167 562.75372 557.75081 581.30415 524.64521 396.46522 338.05739 315.68461 260.63366 190.75059 135.62914 131.77013 95.42751 73.81584 20.39493 11.12360 -12.04661 32.16155 61.80538 133.61521 148.29790 183.99967 185.98520 195.81080 199.01970 161.25418 132.95503 60.34261 22.49420 -0.22475 -26.87787 -43.87440 -50.26804 -45.40916 -32.39591 -18.07461 -12.95846 -15.87375 -24.25864 -29.90050 -29.71689 -29.72364 -34.99271 -36.72479 -35.77752 -36.18673 -40.14416 -45.94843 -47.58319 -55.44243 -60.05877 -60.80117 -65.73873 -68.84008 -65.50545 -61.39227 -58.88676 -61.13636 -64.70040 -66.07870 -69.38578 -72.14683 -76.94434 -82.50037 -83.73302 -84.48522 -87.08202 -88.07632 -89.18594 -94.74027 -94.07093 -101.30707 -99.98733 -100.01750 -99.87118 -107.28662 -118.45979 -120.71366 -120.47305 -120.82089 -123.50906 -124.87615 -125.85441 -132.03992 -133.82072 -137.08816 -140.91615 -142.74676 -146.02236 -146.75861 -150.94304 -153.83763 -169.02920 -175.76862 -268.31443 -465.63471 -581.03502 -729.23199 -881.41318 -925.55164 -993.29270 -1003.98248 -1041.53668 -1044.53594 -1047.35635 -1057.54784 -1070.40288 -1102.59793 -1153.58175 -1210.55682 -1258.32714 -1268.02857 -1299.73707 -1279.57364 -1293.74368 -1307.57753 -1351.89007 -1357.65760 -1386.66811 -1406.99263 -1468.85218 -1469.81062 -1518.73085 -1554.45008 -1615.83994 -1722.05912 -1786.37993 -1836.44289 -1862.24296 -1855.29394 -1896.16553 -1896.26553
816.53337 816.63337 643.82445 519.57271 504.24376 618.32889 621.95669 641.76541 563.08971 460.29430 375.04331 362.61025 299.77060 189.11105 138.23757 133.03962 117.63297 93.88694 65.41583 27.83284 -6.05400 10.67888 9.06693 73.98920 108.31232 133.79923 148.69018 163.97592 184.02098 150.85001 125.95781 85.51655 4.37434 -8.82097 -33.24081 -43.85537 -52.13082 -47.17250 -36.51489 -12.74329 -2.12437 -8.57213 -15.08937 -24.88497 -26.55692 -29.81142 -32.31348 -33.89043 -33.24610 -36.30193 -41.56426 -48.74915 -55.59229 -63.10047 -65.83465 -63.68079 -65.04398 -66.73987 -63.80563 -58.31142 -58.50600 -60.98571 -64.71496 -68.72018 -72.92335 -71.93928 -75.05655 -83.70990 -86.10509 -88.73787 -93.27944 -97.23539 -94.98162 -97.24765 -102.17378 -108.22628 -105.72878 -105.69426 -108.75943 -113.81880 -116.04757 -117.07645 -115.40632 -117.14368 -118.86325 -120.13641 -125.06982 -130.28987 -133.44414 -134.87095 -138.83779 -139.29246 -141.90910 -144.81045 -147.54545 -154.52500 -157.86324 -167.74789 -235.49087 -301.38883 -467.05861 -552.12339 -719.82352 -889.42276 -982.49517 -991.80632 -1011.67186 -1016.89463 -1040.22004 -1045.43540 -1066.67841 -1108.73870 -1141.69251 -1202.15141 -1225.23052 -1243.18764 -1252.62856 -1228.86398 -1207.57364 -1240.67132 -1249.26092 -1263.73152 -1270.94941 -1314.56902 -1324.73660 -1372.88762 -1447.51609 -1470.13793 -1576.12646 -1608.84559 -1685.73448 -1796.88989 -1801.48600 -1849.33502 -1832.26060 -1832.36060
811.99674 812.09674 914.94660 527.09550 601.23732 664.31381 738.74054 750.74903 682.89271 483.38404 382.99697 340.79661 285.90200 191.39248 114.93123 100.29568 111.20228 110.56532 98.86051 57.76848 43.87656 1.82330 2.51147 21.48671 66.19144 83.74014 104.84123 143.49014 120.41334 115.20176 80.63462 82.06228 -1.65729 -42.99506 -42.00585 -52.55464 -48.82165 -41.92722 -17.07035 -5.81029 2.01963 -0.37729 -9.15521 -21.88398 -26.51600 -28.37336 -31.48774 -33.26447 -33.19448 -42.14758 -47.66869 -55.79752 -60.14131 -64.28939 -61.53269 -56.85520 -57.13534 -59.80662 -59.12280 -56.82926 -59.51085 -60.39581 -66.16892 -71.20206 -74.17900 -74.96894 -78.68267 -84.86255 -88.41028 -91.55650 -95.16401 -98.17811 -102.29005 -105.06931 -105.99758 -110.60973 -111.13024 -114.99479 -113.86507 -117.68287 -113.42007 -111.39852 -109.38900 -112.42508 -116.48309 -119.77399 -120.03299 -128.86693 -129.73731 -133.09741 -134.36651 -138.44725 -140.50844 -141.34680 -145.03001 -147.36924 -152.03412 -167.75711 -170.76324 -237.87486 -338.07658 -452.79588 -503.24075 -654.83075 -765.00514 -920.89164 -933.40159 -963.76298 -1029.09119 -1045.36421 -1062.44802 -1082.62571 -1136.10040 -1181.70441 -1223.37416 -1216.76516 -1200.70256 -1159.40561 -1153.57931 -1160.92600 -1174.97512 -1163.10539 -1156.78083 -1219.25431 -1203.03790 -1248.61418 -1316.10912 -1366.26196 -1481.31494 -1523.62752 -1576.04195 -1642.93754 -1709.87099 -1744.49997 -1760.66099 -1760.76099
1158.61150 1158.71150 897.39278 715.75240 680.72564 777.56960 831.46119 813.71476 757.18697 608.47345 427.32376 383.82719 231.19281 141.02349 110.89778 65.86818 73.89007 85.42120 89.28481 74.37057 32.44949 3.82790 -3.85363 3.64308 12.43373 66.08296 86.76631 102.70051 61.80237 73.35848 43.56820 -11.32125 -30.02818 -48.83217 -49.52228 -47.75930 -42.75924 -24.44709 -4.43329 3.69582 8.55249 1.02942 -9.03807 -17.23313 -18.91972 -23.04921 -26.07763 -33.63395 -37.58900 -47.57634 -53.15135 -56.91107 -60.63441 -57.58562 -50.26442 -53.75318 -51.30676 -51.76608 -55.61330 -58.07592 -59.66596 -62.90963 -67.85089 -73.57010 -76.70814 -78.73262 -81.97617 -85.22421 -85.82159 -93.38786 -98.09342 -100.45178 -105.04575 -106.57657 -110.63966 -114.93440 -116.32204 -114.93433 -113.90609 -110.41247 -108.18269 -106.95747 -107.86813 -110.89720 -114.90369 -118.76602 -120.14009 -124.11967 -127.84698 -129.66132 -131.70559 -134.39310 -135.83190 -140.08487 -143.93113 -145.78131 -147.42205 -158.47195 -167.17555 -173.32108 -174.63959 -282.93920 -375.41402 -361.08698 -592.74372 -713.29762 -853.22461 -916.72832 -992.56571 -1035.07810 -1064.91600 -1079.47625 -1122.17424 -1172.35067 -1198.54441 -1207.79858 -1172.28951 -1146.24374 -1111.45476 -1082.38160 -1087.57355 -1116.03927 -1069.01538 -1098.89710 -1160.20786 -1167.46196 -1177.08234 -1289.60990 -1342.49548 -1400.45939 -1491.21519 -1525.29236 -1610.04294 -1694.01672 -1680.12595 -1680.22595
1318.71828 1318.81828 1161.25656 850.96156 820.12412 854.03907 901.72626 892.03446 810.38554 635.44308 530.24480 376.75041 205.85923 143.55765 94.56871 22.93328 38.05636 43.53311 39.82755 19.88404 16.95582 -0.37243 -16.17228 -15.30838 7.47155 27.16828 47.45916 53.25426 44.48531 -1.45885 -5.85298 -23.23821 -46.01487 -39.92424 -42.06588 -40.89822 -25.24330 -8.83192 11.26640 5.77395 8.57359 1.64887 -4.79265 -12.01639 -10.59009 -15.54101 -23.17886 -29.89180 -38.04800 -46.16360 -55.02906 -59.42308 -55.53563 -48.12185 -43.05707 -47.25897 -46.61110 -50.58065 -54.21902 -58.54312 -61.90670 -65.31172 -68.62903 -73.53290 -77.62420 -79.86144 -82.41484 -84.26997 -87.08774 -89.36071 -94.98339 -99.99421 -104.09538 -104.16350 -107.27113 -109.75440 -113.11821 -112.95488 -109.98330 -106.46448 -107.03947 -105.57133 -107.27293 -109.75819 -112.41583 -117.55582 -119.46121 -122.85949 -125.99426 -127.79589 -131.17312 -133.15443 -133.08640 -136.21892 -139.45422 -145.02152 -148.46580 -152.90285 -161.03899 -158.79623 -165.92733 -171.49502 -234.75644 -277.91612 -416.86945 -553.24319 -831.73382 -891.27975 -978.75591 -1020.01132 -1061.96166 -1087.79445 -1121.56723 -1141.99230 -1187.26021 -1168.54774 -1152.74155 -1108.62439 -1056.47981 -1039.06372 -1027.10933 -1016.80792 -1033.47888 -1041.82085 -1046.76503 -1019.63843 -1023.19858 -1107.58490 -1195.69502 -1245.40792 -1344.96665 -1464.38858 -1463.49690 -1595.92562 -1595.53534 -1595.63534
1555.10063 1555.20063 1312.74393 955.51747 936.57256 973.45034 946.85982 896.94815 775.62386 727.12107 534.33355 370.80310 220.79998 128.01993 106.13810 65.72063 28.01171 13.86947 -0.64926 0.42176 -2.76319 -27.89885 -28.64673 -16.36136 2.35596 7.43224 17.32441 29.39504 8.54274 -10.31303 -21.82659 -39.38406 -35.60667 -34.47534 -27.86402 -17.81693 -6.80975 12.56562 42.27380 42.08488 15.29966 5.77635 0.16689 -7.77646 -7.68919 -13.61272 -23.43190 -28.60152 -32.30216 -41.25298 -55.95559 -55.90079 -52.20140 -41.02006 -40.24887 -41.10372 -42.10445 -46.90036 -54.78077 -60.84161 -63.78415 -67.05408 -69.33592 -73.47700 -77.40849 -80.15726 -82.11552 -83.47620 -83.49628 -87.73693 -93.18151 -99.17715 -99.28728 -98.24039 -103.40295 -106.75099 -110.50887 -105.47839 -100.02547 -102.40925 -102.34215 -106.87410 -107.31730 -109.81273 -111.06135 -114.93172 -118.89644 -121.54522 -123.03241 -126.75530 -127.99889 -131.50110 -133.39168 -135.40048 -138.79170 -143.86320 -147.00169 -148.66644 -150.79220 -153.27183 -161.76270 -165.21516 -205.41090 -227.20095 -339.51315 -488.31795 -775.39933 -827.47266 -958.95562 -980.44434 -1027.49900 -1063.06831 -1117.53707 -1120.59377 -1134.54894 -1127.01983 -1098.40004 -1060.99567 -1043.06942 -1026.23313 -1025.59267 -990.39650 -969.15223 -967.47121 -969.86748 -992.86789 -1000.93766 -997.06354 -1034.50695 -1153.36204 -1277.57537 -1340.87930 -1408.83289 -1434.62913 -1512.27723 -1512.37723
1506.35825 1506.45825 1242.18044 1125.39704 1041.97856 1023.97458 972.34946 891.05015 841.13281 629.50151 503.98209 330.38729 291.56166 167.51323 99.12008 85.99645 48.48564 29.78933 -9.29129 -12.24461 -23.26180 -21.22856 -24.99580 -31.78008 -20.54029 -11.45735 4.12465 -2.33348 -8.19635 -26.82160 -33.96184 -32.14811 -25.33349 -16.84745 -21.99150 38.46195 38.60845 56.19851 65.69445 58.12173 40.07552 21.26255 3.50297 1.04750 -3.71208 -13.54334 -24.39807 -32.74971 -35.34315 -42.29637 -49.10688 -57.37764 -48.75013 -42.84939 -36.40326 -38.68114 -41.08425 -48.12518 -55.52694 -61.23612 -65.63158 -69.87734 -70.92578 -73.45403 -77.63318 -82.06429 -82.74092 -84.66503 -86.71270 -87.81971 -91.87973 -96.01119 -94.64085 -94.18455 -97.21690 -102.94257 -106.11233 -98.78481 -98.12650 -98.53430 -100.29279 -105.29597 -105.99546 -107.99456 -110.35193 -114.54131 -117.13296 -118.77297 -122.24848 -124.85609 -126.19417 -128.55697 -131.77207 -135.31385 -137.62334 -139.26878 -142.15226 -143.91834 -145.32393 -149.87165 -154.71245 -156.84980 -167.03482 -173.81984 -192.26644 -326.01992 -608.24268 -746.32771 -837.30231 -949.74327 -945.42429 -1046.59247 -1064.81504 -1066.51267 -1094.12956 -1058.05581 -1066.30570 -1050.38002 -1024.51827 -993.38724 -981.06892 -973.25945 -931.84528 -934.86700 -890.31292 -907.51280 -909.25075 -924.13506 -999.50221 -1022.33264 -1125.93544 -1320.67990 -1330.01650 -1427.29870 -1433.66380 -1433.76380
1261.83797 1261.93797 1322.21237 966.55960 987.83944 904.02604 788.98496 776.20739 769.47408 712.62998 510.12353 468.23813 353.35575 304.38308 210.61392 164.23406 117.24536 45.50579 29.11885 0.93698 -3.40024 -16.26646 -25.10284 -26.20648 -33.79982 -21.81902 -20.09571 -19.73037 -28.34137 -30.90528 -40.37749 -31.45387 -1.10896 27.00816 55.65098 73.88484 55.24529 82.90745 100.07008 94.87386 46.98819 10.34619 7.61783 -0.49053 -11.96349 -18.61208 -39.60617 -41.30582 -43.52426 -44.35670 -47.01945 -44.39970 -45.81766 -34.02355 -35.46011 -36.98639 -41.73273 -47.80930 -50.29830 -57.53719 -61.85155 -68.77803 -70.49421 -70.55661 -72.28818 -75.07582 -82.22782 -84.85277 -87.44055 -89.13818 -91.94531 -92.61994 -92.26299 -91.85803 -96.98187 -103.19785 -107.10428 -100.23186 -98.51875 -97.13572 -99.88323 -100.98159 -104.51153 -106.63739 -109.68236 -113.41663 -114.71396 -118.29053 -121.65066 -123.73242 -125.05281 -125.98821 -131.33449 -134.01604 -136.29958 -138.92765 -140.30439 -143.25395 -144.40033 -147.15730 -148.96583 -153.93411 -155.92177 -168.41928 -185.80153 -314.75427 -401.22955 -473.61833 -793.38541 -848.35096 -881.45705 -1007.11328 -1026.34630 -1033.34432 -1034.05172 -1046.74662 -1044.77415 -1019.27857 -1011.74567 -976.70261 -937.57940 -899.02595 -873.43005 -877.20735 -848.43810 -841.04711 -839.88712 -844.89378 -917.54203 -951.68094 -1018.48713 -1136.43199 -1237.79670 -1312.43984 -1360.87996 -1360.97996
1223.10738 1223.20738 1050.19035 876.14277 807.12395 767.14365 598.07140 690.13222 776.21133 803.11426 688.70016 528.15949 489.83145 373.44356 335.82496 287.61037 252.68279 153.58729 72.24342 29.88900 2.40827 8.53302 17.43183 -31.48323 -32.47901 -33.17214 -35.86320 -26.55155 -37.89964 -37.01076 -38.18885 -12.53425 7.01704 50.10013 70.55233 120.14403 106.63803 107.83528 110.78973 97.64753 36.63967 9.02511 7.95850 -7.34243 -19.68554 -31.39628 -40.10265 -40.96050 -40.80855 -36.37994 -35.76256 -38.19843 -33.44551 -34.06848 -34.19770 -39.05268 -43.82138 -44.82126 -49.16258 -51.54157 -59.23740 -62.20126 -66.89599 -67.98403 -69.71817 -74.78143 -77.30989 -80.02382 -83.16067 -87.63345 -87.70019 -87.71359 -90.00548 -90.30197 -99.94463 -105.62855 -108.15454 -102.68773 -97.75157 -98.51604 -100.73816 -101.04136 -103.58228 -106.76247 -109.00941 -112.02281 -114.25914 -116.83484 -119.69238 -122.50158 -123.29455 -126.57298 -129.97772 -132.23409 -135.74697 -137.02098 -137.07274 -139.68723 -142.85960 -143.53276 -143.86806 -148.08277 -152.92184 -159.46519 -177.26666 -212.11979 -331.81106 -386.39971 -679.58800 -798.71473 -838.38525 -876.82226 -978.56200 -1016.99482 -1019.57616 -1029.25010 -1020.70043 -1008.80806 -1006.31992 -938.57051 -907.26287 -884.53247 -861.16098 -811.53337 -803.12705 -798.59005 -807.65213 -827.16643 -862.66446 -880.99535 -907.91965 -1032.13476 -1148.43711 -1268.34052 -1297.76877 -1297.86877
1190.95842 1191.05842 982.67910 785.68024 634.43205 541.57721 581.81851 618.51486 715.83301 741.78857 714.97452 602.20351 519.63866 411.44347 346.18170 354.65841 320.81391 270.75813 170.28991 81.90730 43.23219 50.62887 41.89393 14.40224 -28.13752 -31.74288 -31.29844 -34.18171 -34.17215 -35.56424 -35.50497 -6.64514 20.13980 51.49865 101.51569 118.53154 144.28884 132.73431 115.23941 59.97098 7.00567 1.16751 1.72225 -11.29534 -29.00690 -32.82210 -38.55758 -37.19291 -32.17222 -29.62174 -28.96972 -32.32045 -33.59431 -36.74087 -36.79197 -42.69436 -46.39410 -50.46894 -54.60589 -53.01485 -53.44486 -59.40068 -62.48128 -64.32504 -68.25559 -70.39688 -74.70240 -77.95043 -78.30120 -85.20186 -84.60164 -90.08772 -97.07122 -97.74628 -101.93420 -103.81884 -101.23135 -100.85023 -97.63771 -99.15976 -102.54207 -102.91549 -107.23202 -110.87575 -111.46026 -112.45085 -115.52771 -118.05593 -120.91157 -121.98262 -123.80559 -126.73969 -129.73069 -132.63755 -133.49994 -134.49260 -134.55277 -135.75873 -139.87150 -142.14220 -143.12354 -144.94141 -149.17433 -150.55183 -168.71976 -232.66907 -256.85398 -354.48616 -495.10678 -681.66616 -718.95271 -849.13789 -928.96909 -996.40022 -1007.73953 -1010.37811 -1013.81605 -994.00258 -963.88255 -915.67028 -889.51332 -873.29794 -814.20433 -781.80097 -754.00979 -741.87442 -754.97882 -762.38226 -806.91194 -826.19948 -893.69960 -984.24726 -1046.26755 -1250.77638 -1249.15132 -1249.25132
990.89019 990.99019 1026.90632 635.03931 607.89515 525.01609 478.80919 517.17368 620.65038 667.42190 588.36950 604.24292 580.95490 476.73430 448.35888 387.61435 392.25682 337.33665 215.02326 175.95185 130.33636 118.21352 53.41748 12.37779 -11.01929 -3.64112 -29.66225 -30.23314 -31.39480 -30.57770 -27.56391 -1.59213 35.76886 45.14945 95.15901 134.03797 156.26748 121.89049 93.32710 42.14415 -0.42476 -9.96863 -12.35728 -24.96627 -36.92033 -30.96641 -27.88329 -20.43024 -10.54782 -10.62444 -26.49162 -32.26562 -36.65542 -39.30018 -46.05312 -50.34904 -53.69186 -56.21622 -58.84655 -59.90389 -60.56593 -62.46871 -64.67537 -63.60591 -67.82774 -71.00746 -77.15376 -77.11783 -79.22934 -85.53831 -87.46911 -91.63592 -100.18687 -101.98080 -101.27640 -100.30588 -96.71459 -96.91614 -96.72325 -100.71543 -102.35779 -106.07540 -107.99283 -111.67088 -112.23590 -114.47271 -116.35285 -119.32317 -121.43879 -122.23825 -124.50659 -126.47592 -129.32950 -131.58221 -130.73594 -131.01002 -132.77424 -136.03724 -138.13533 -139.05067 -140.61547 -145.65231 -148.88881 -152.28591 -153.70638 -173.75434 -224.81169 -278.49022 -431.61408 -553.55069 -662.95767 -849.11747 -865.71835 -941.18512 -988.44780 -999.15698 -997.02400 -987.85892 -950.12297 -898.22837 -858.58622 -845.80650 -812.37392 -759.55181 -737.18893 -726.28564 -726.35779 -714.28392 -750.82170 -787.54759 -862.71683 -960.84854 -1047.07298 -1142.60067 -1206.08219 -1206.18219
913.44730 913.54730 742.01089 640.33352 552.35474 472.79876 439.99776 491.31241 504.61510 485.40878 487.04674 563.03731 587.78577 518.70365 464.07543 399.78514 393.92588 358.22359 218.86872 152.55318 128.11499 49.56272 31.22577 -19.58765 4.85641 18.02391 -0.07174 -2.22399 -6.38961 -7.62953 -8.17505 -8.66496 21.78539 51.97082 94.76765 128.10918 141.98906 108.04766 68.02153 10.31057 -5.60252 -21.88585 -29.00399 -32.60818 -33.42237 -21.10143 -3.22225 4.35832 6.87801 -1.63456 -11.85198 -32.04054 -36.58933 -40.68357 -48.23120 -50.46325 -50.96639 -52.14543 -55.15273 -64.85786 -64.73295 -68.77857 -66.37979 -68.23035 -74.95275 -81.52334 -82.07491 -81.23466 -84.67863 -86.01416 -85.97378 -97.02064 -100.06618 -99.01694 -94.58573 -90.50711 -90.32407 -92.79741 -96.89604 -100.94509 -103.71635 -105.80028 -109.76815 -113.03604 -113.92682 -115.77240 -117.81355 -119.99398 -122.38972 -123.72150 -124.46326 -126.68844 -128.94804 -129.97537 -129.42534 -129.66814 -132.48050 -135.43273 -137.22584 -137.66402 -141.01667 -143.75447 -148.43726 -149.51753 -157.98069 -163.64170 -166.72819 -205.33595 -249.50653 -363.54995 -616.50109 -707.10408 -855.44621 -913.77661 -985.18247 -993.59547 -990.77063 -977.55633 -928.48603 -880.90711 -835.10441 -819.10387 -755.26991 -714.37625 -710.16371 -685.59730 -695.62408 -710.26203 -748.83576 -784.55254 -805.34163 -926.72331 -981.24239 -1119.76825 -1164.81860 -1164.91860
866.23165 866.33165 737.60820 585.63576 480.88752 397.18085 435.35746 486.18591 476.93063 444.37418 397.52866 483.44989 523.63369 569.92263 545.18990 463.06486 391.68103 322.70220 186.93862 66.70026 55.58090 19.48988 2.09002 4.57361 39.44049 66.82351 20.92145 -1.15439 13.50208 20.20012 3.44056 5.74177 21.81906 47.33509 92.97893 134.49966 145.64490 110.87778 61.83877 0.49625 -10.67812 -23.74855 -28.17605 -30.51151 -19.75823 -6.18920 9.85458 29.53135 34.26736 16.27121 1.78795 -18.09928 -30.22385 -32.79629 -48.42806 -47.90071 -47.29893 -45.64366 -53.87074 -59.68305 -65.49300 -68.87058 -71.37287 -72.02317 -80.13484 -83.24177 -83.15412 -85.99393 -92.07431 -91.79960 -91.89607 -95.76603 -94.44982 -93.40700 -90.35253 -89.50427 -89.15278 -92.81983 -96.49966 -100.06271 -103.46667 -105.16832 -109.23449 -113.26121 -116.07130 -116.76823 -118.89235 -119.91281 -121.84224 -123.51314 -124.26026 -126.34998 -128.51974 -129.24713 -127.32573 -128.74971 -131.23100 -134.74127 -135.04322 -136.06444 -136.58469 -140.81950 -146.03721 -147.94745 -154.41781 -159.45106 -165.91749 -186.18917 -232.49138 -249.49179 -457.31370 -727.95523 -849.54541 -886.72326 -977.62927 -986.06048 -968.77722 -951.97563 -893.44134 -845.09067 -805.33101 -788.04743 -720.50881 -706.71451 -672.41547 -674.23007 -668.49005 -677.71745 -716.54835 -748.13685 -788.63066 -872.49974 -905.74013 -1118.04078 -1121.26967 -1121.36967
845.14251 845.24251 723.54135 585.69481 477.02077 377.71827 372.23621 392.04599 401.40810 376.63630 379.23617 400.31475 540.72539 561.17183 555.49316 456.97154 430.23839 358.89638 201.51826 29.76711 32.26333 30.53946 39.98789 33.66495 47.04893 49.09669 42.69802 16.05167 44.16523 54.77941 63.12344 46.13259 27.42813 77.62184 109.33997 138.08780 139.67215 112.78016 65.00975 27.62179 -10.26961 -19.65749 -17.81137 -14.06546 -4.03699 -0.34286 25.28960 53.19972 44.30167 34.27506 10.28482 -8.65671 -12.36815 -26.03526 -31.56223 -40.98261 -42.14262 -48.66790 -53.55181 -60.01543 -61.26225 -62.29936 -67.32780 -68.73788 -77.92822 -80.83267 -74.81062 -79.79568 -87.45763 -93.67799 -98.25365 -95.58401 -91.25246 -82.91679 -83.26395 -86.23542 -89.84289 -94.27676 -96.47661 -100.65988 -104.10220 -106.47221 -110.44082 -113.21184 -116.15767 -116.44775 -118.92584 -120.58142 -121.72765 -123.15042 -124.13232 -125.24765 -126.35566 -126.92927 -126.37784 -127.50146 -130.10262 -132.19389 -133.10484 -133.90620 -133.42943 -137.17385 -139.75594 -145.01092 -152.48810 -158.27121 -161.08827 -164.12681 -191.21944 -235.92738 -453.01060 -767.06917 -802.48660 -884.50895 -944.44741 -956.87461 -950.02176 -925.08802 -884.58370 -804.78288 -772.23359 -729.15271 -680.88731 -630.40339 -639.96094 -641.03099 -637.60465 -643.56076 -676.48615 -700.10306 -753.19734 -798.21090 -879.11212 -973.81370 -1066.69663 -1066.79663
783.91129 784.01129 686.11629 579.78380 527.61800 402.08405 312.69951 308.68137 272.10126 303.54216 358.02261 422.28611 508.88661 556.31236 590.70919 483.32878 394.13584 277.11595 166.85878 96.98462 93.67416 67.03630 120.07826 108.21659 127.35538 71.72702 50.58719 27.68887 49.43239 93.55741 106.47629 106.60562 74.28963 99.65567 153.15256 175.93963 144.49402 101.65063 74.03908 14.46379 -3.83344 -5.18594 4.43655 9.77194 14.90902 38.77933 57.04314 91.72602 83.18048 56.86417 31.80146 -0.56293 -15.22180 -18.09811 -30.52306 -36.72725 -36.99392 -40.21886 -50.14887 -55.38861 -54.40564 -59.30130 -58.78162 -64.96229 -65.63261 -68.14350 -70.52796 -73.33476 -75.77882 -87.31279 -91.00266 -87.29521 -79.99969 -80.63145 -83.44372 -85.22171 -91.11792 -94.62299 -98.96790 -103.03720 -106.39854 -106.71716 -110.14649 -112.97287 -113.75729 -115.53674 -118.80198 -120.54414 -121.54349 -123.05506 -123.75200 -123.56585 -124.08648 -125.28263 -125.70527 -127.54356 -129.80036 -130.30342 -130.71601 -133.33808 -133.44165 -136.93966 -139.07072 -143.23428 -150.09119 -154.92670 -159.31089 -159.96760 -188.11923 -209.84869 -360.83014 -606.76854 -759.51562 -899.71227 -920.60819 -947.75986 -897.34556 -843.65754 -833.52947 -791.86575 -728.71183 -698.62827 -639.67714 -619.47346 -590.12397 -606.25071 -603.36733 -630.10963 -655.71219 -696.09086 -705.54339 -746.15728 -835.59688 -966.46429 -1002.16640 -1002.26640
704.25818 704.35818 654.53403 567.12933 526.91813 418.26444 313.62786 288.41342 255.21497 296.57669 367.23024 467.54798 490.92599 558.43497 603.83329 509.30483 385.62765 273.98897 260.96175 181.39030 188.32847 163.81796 145.99486 182.15281 157.36756 134.30153 92.16311 74.05686 68.50933 96.61826 133.11137 125.65317 125.17315 147.68530 202.60269 196.86591 169.17434 118.27738 85.44117 43.06856 18.04675 13.72040 15.84024 53.91154 67.21323 58.96772 89.63429 104.64336 130.17024 80.43571 40.29904 -2.33176 -8.30788 -18.43518 -26.70280 -28.13243 -33.39969 -35.58547 -48.41466 -55.04709 -54.09493 -56.13463 -57.58917 -58.98672 -58.77849 -59.88110 -63.89264 -68.16276 -72.56975 -83.51919 -82.53780 -86.72937 -78.38120 -79.86773 -82.53113 -86.21500 -89.33602 -96.12435 -100.79857 -102.92409 -107.63934 -110.69093 -113.68788 -115.14259 -115.41019 -116.04821 -118.36652 -120.63931 -120.63771 -120.94788 -122.39658 -123.10545 -123.23298 -124.50376 -125.14538 -127.48740 -128.47238 -129.22228 -129.79903 -130.56490 -134.33808 -137.07636 -139.22310 -143.46510 -149.46205 -153.22425 -155.25184 -162.68849 -189.55175 -197.86044 -352.53675 -534.64505 -687.81159 -819.97104 -890.92498 -897.17744 -873.88931 -833.86292 -805.20169 -736.91005 -689.26972 -626.83125 -601.69422 -586.48338 -571.78583 -553.21297 -565.45085 -588.05410 -584.50163 -628.23044 -653.54384 -712.10471 -722.98966 -928.42459 -929.95154 -930.05154
648.38457 648.48457 618.81463 514.92808 443.73496 421.18270 351.49650 268.76668 241.07224 302.16786 360.39675 459.20167 535.36908 590.19965 600.85317 569.51221 435.26392 327.69270 266.77334 247.48074 229.96210 243.36816 228.88401 244.55695 240.41008 179.89496 155.54859 103.24671 99.13844 115.64279 150.56319 188.12801 187.60576 223.60978 237.76127 227.07326 171.92918 157.35890 107.86790 79.98565 61.84281 30.60240 29.38901 74.31749 112.64689 113.24222 142.77645 150.59219 149.41179 118.09016 34.70312 -2.42949 -3.68466 -11.28183 -18.95842 -22.32356 -29.71662 -33.14184 -44.33255 -54.66332 -59.38409 -56.20263 -63.73423 -60.85929 -60.00145 -60.68790 -63.79134 -71.55398 -77.59189 -84.78455 -90.97911 -85.33448 -79.37157 -81.65936 -83.52746 -86.91362 -91.51123 -98.23297 -100.26940 -104.58529 -109.81607 -111.62745 -114.11361 -115.84034 -116.74352 -117.08598 -118.76016 -119.92332 -120.06569 -120.36099 -121.46424 -122.33045 -123.22151 -124.05634 -125.06962 -127.28737 -127.83067 -127.45376 -128.70385 -129.98238 -133.56700 -136.81850 -139.72806 -144.49827 -146.62807 -149.16686 -152.83715 -164.84731 -176.08950 -189.45058 -373.50726 -496.21105 -673.46987 -753.32812 -820.36061 -860.57366 -838.21761 -821.42594 -741.04653 -720.29446 -627.24385 -588.85766 -547.17428 -513.68003 -515.26753 -509.17332 -513.03874 -535.19004 -515.98489 -557.86917 -576.03970 -644.39201 -709.45610 -795.20707 -852.52333 -852.62333
570.03396 570.13396 569.26605 468.23167 411.71296 366.79994 301.87269 245.27760 221.68305 297.50918 367.63964 455.52585 488.37168 554.59866 583.77379 543.78810 490.30991 428.29333 378.17167 325.17988 323.60318 341.02974 300.07573 298.62636 301.17147 264.74714 200.60798 115.30185 110.88001 143.48094 189.52495 251.07792 247.31741 263.59524 276.47365 233.53940 195.74038 160.65165 154.91030 121.19163 99.42535 68.80279 70.57958 132.05546 152.59152 147.39955 168.58825 179.38012 149.24791 89.64861 16.59464 2.49565 -1.25424 -18.21415 -26.64186 -27.08216 -31.44627 -34.10205 -45.42562 -59.18414 -61.70782 -71.79513 -72.01524 -67.49840 -68.00651 -69.29501 -66.96203 -72.34346 -78.63665 -87.91254 -90.25793 -81.73508 -81.64066 -82.30460 -87.16738 -90.09411 -94.79249 -97.26217 -101.09992 -105.71046 -108.42123 -111.63002 -115.41652 -115.96261 -116.98215 -117.45120 -119.38433 -119.32870 -120.04314 -120.24084 -121.12807 -122.55326 -123.15875 -123.45427 -125.12477 -125.59383 -127.34993 -127.43819 -128.99493 -131.35977 -133.56038 -135.76406 -139.03580 -142.85420 -146.38807 -148.40181 -152.21172 -156.60516 -170.62273 -182.18050 -306.87914 -418.63502 -646.60839 -731.35892 -835.18072 -819.96737 -826.54979 -814.21041 -704.63446 -624.97247 -610.20655 -513.63616 -495.44403 -482.37252 -462.11370 -462.54872 -477.11221 -473.15373 -497.84362 -500.82110 -545.33459 -606.10509 -650.06884 -753.38807 -775.91725 -776.01725
488.72011 488.82011 504.54360 367.04504 337.71847 348.96470 274.46642 193.65069 205.83533 274.01182 351.91854 415.70016 456.38246 470.56937 495.89933 508.07741 487.54042 466.87769 434.70871 392.50682 427.18025 426.22047 393.72810 350.75363 310.18122 281.59443 230.03173 193.07602 142.77489 177.68080 256.34198 303.44025 305.97363 284.53875 252.10450 198.94041 176.83015 163.43364 181.21326 170.69305 138.37436 124.37621 128.84005 150.17566 152.90111 144.88233 152.13120 137.05682 115.47485 77.78754 16.54558 -0.69097 -18.06974 -30.20464 -43.96072 -37.52244 -35.08537 -38.67647 -49.12441 -59.86182 -68.70294 -74.88136 -76.94236 -74.73396 -76.71185 -74.10889 -76.28036 -81.05991 -81.26775 -88.89642 -84.60322 -78.51101 -75.34147 -82.89938 -86.37595 -94.51330 -95.72981 -99.46520 -101.95048 -106.58680 -109.86410 -112.05198 -114.31921 -115.34479 -116.15376 -117.21196 -118.77150 -119.44929 -119.91155 -120.61122 -121.06501 -122.09857 -122.76919 -123.58850 -123.85168 -124.93730 -126.25505 -127.14571 -129.74934 -131.10378 -133.39106 -135.91845 -138.96138 -140.52979 -146.04656 -149.17158 -154.01074 -157.63259 -164.48236 -177.37035 -301.54264 -380.60117 -564.69231 -630.76387 -785.00293 -791.30664 -778.07634 -733.87552 -644.24341 -600.99828 -536.18064 -509.94694 -477.53811 -445.97558 -453.62213 -435.94200 -434.44557 -436.53924 -454.60886 -472.02700 -491.31330 -517.61170 -572.33423 -630.16134 -702.04127 -702.14127
461.08962 461.18962 389.63528 313.74851 303.91519 302.19745 243.18929 201.90793 198.58138 233.27004 334.51541 368.77678 389.29193 426.49012 453.06773 461.50794 455.30102 469.42381 506.19248 513.63428 507.23130 455.99322 424.19227 368.17112 316.86992 336.01798 301.64514 268.99887 287.74787 274.51576 357.21686 340.33629 319.81254 286.61612 225.43967 148.81808 138.77027 153.68395 180.03913 166.04152 139.79645 133.31784 134.06202 129.90647 137.24323 134.73757 112.33825 71.89921 60.64363 34.92086 13.36044 -15.82925 -22.59757 -36.13709 -44.08173 -46.44969 -47.30661 -51.83625 -54.73955 -65.61290 -65.35427 -71.93101 -72.31275 -68.21626 -71.63555 -74.50880 -82.29617 -79.79450 -79.78071 -77.28189 -73.08122 -69.60781 -77.15308 -79.39471 -86.04326 -94.13877 -98.04059 -101.46595 -104.13179 -108.76423 -110.45446 -112.90039 -114.81296 -115.28540 -116.29996 -117.41308 -118.51567 -118.84506 -119.53092 -120.16275 -120.87573 -121.35253 -122.58615 -122.74376 -123.64580 -124.81589 -125.95698 -126.46157 -127.91475 -130.58500 -132.95734 -135.97486 -138.31645 -141.19082 -146.91388 -151.03470 -152.03360 -155.97131 -163.44664 -169.42287 -210.01027 -347.80752 -478.69798 -580.97259 -667.05951 -693.10603 -679.84770 -685.27511 -649.48020 -534.91962 -501.52491 -450.97884 -431.09011 -424.86569 -422.81604 -414.07963 -416.17049 -424.50834 -441.76781 -461.62930 -467.72268 -500.81984 -549.01007 -623.00900 -637.40490 -637.50490
454.66841 454.76841 388.91141 302.23255 284.57517 239.69261 204.37487 173.49800 172.81738 213.33018 279.38452 365.69072 372.00588 350.22772 351.02963 371.99295 411.38769 471.61933 516.27425 528.64488 491.14947 418.41754 392.87127 348.64422 337.66851 357.15603 370.01487 350.19911 353.78276 415.41822 384.68378 350.49034 288.26374 274.55247 193.00869 98.55685 78.49077 122.02862 151.60302 144.83385 109.29774 109.93694 80.19432 101.07054 115.27401 106.38909 83.11758 42.61224 8.91004 6.84142 -10.76775 -26.90438 -25.53040 -33.06376 -48.66150 -54.24486 -58.00093 -62.45751 -66.32939 -66.17378 -62.17647 -57.44142 -57.81058 -62.01687 -61.63006 -70.96780 -73.99780 -69.64510 -69.31456 -65.44105 -66.05906 -69.32983 -77.54152 -84.22077 -87.55245 -91.72925 -97.95970 -102.07144 -103.61813 -108.38186 -111.10712 -113.79347 -114.46488 -116.03502 -116.68004 -117.38077 -118.34569 -118.67516 -119.11256 -119.26658 -120.30298 -120.61810 -121.52050 -122.42148 -123.73706 -125.10675 -125.62003 -126.98435 -127.86926 -130.55828 -131.65505 -135.07725 -136.66572 -140.12230 -145.70058 -148.86923 -149.94125 -151.18046 -159.55948 -164.28769 -221.20157 -265.03594 -435.00994 -488.52925 -574.75528 -628.93932 -630.13809 -636.87879 -572.87941 -541.70080 -482.43757 -432.34133 -410.60806 -387.67995 -391.57194 -398.06116 -404.47033 -422.50688 -423.66530 -438.40243 -455.08199 -491.62159 -514.97755 -567.76815 -590.07063 -590.17063
471.95970 472.05970 405.77001 283.29535 266.73915 189.65102 153.87813 152.72253 172.00430 227.72528 246.50972 322.85283 318.63821 308.06601 304.30305 314.67374 422.10875 462.46851 505.14881 513.20910 474.37040 413.63914 382.14240 296.22586 301.83679 340.22752 376.13866 391.55708 409.19614 432.04070 430.69828 349.52160 238.50512 207.23576 130.78667 61.90117 53.41140 54.74545 59.19709 80.20509 59.37190 61.63206 31.64072 46.72521 51.23797 47.16047 27.37994 -15.74289 -26.37722 -31.28918 -33.52440 -33.19202 -22.22827 -31.46300 -44.55193 -56.10425 -57.21911 -60.76421 -64.33770 -59.27020 -53.89373 -47.91232 -48.21662 -55.87897 -59.99962 -68.56517 -70.90621 -64.74690 -66.66632 -65.00030 -65.73485 -70.35799 -78.24183 -85.22422 -85.47119 -90.04063 -97.18158 -100.06208 -103.09136 -104.18711 -108.36584 -113.11649 -113.44623 -114.30284 -114.71013 -115.51855 -118.15043 -118.31483 -118.26889 -118.64961 -119.32185 -119.79179 -121.17086 -122.34992 -123.56966 -124.67607 -124.87113 -127.05908 -127.57570 -129.82284 -131.31047 -135.07810 -136.03909 -140.09134 -142.36509 -146.34820 -148.96902 -148.46626 -153.11576 -155.90090 -180.22402 -275.74484 -323.54028 -390.36272 -412.04902 -536.52248 -526.55146 -582.14714 -543.30892 -497.93752 -441.53525 -393.84523 -375.04143 -364.24971 -363.59615 -370.62338 -387.65124 -403.47967 -413.01265 -435.91350 -452.38095 -472.93936 -497.11229 -531.35310 -558.64617 -558.74617
480.39920 480.49920 418.29224 289.50952 223.79035 188.49554 135.12129 113.13540 153.70979 196.31368 218.62207 245.92442 238.60351 245.97525 254.36666 304.02435 347.13704 445.03858 463.33993 443.34817 416.74373 368.82678 311.56268 270.70661 258.23484 284.55238 354.53861 366.44628 406.07050 430.42432 439.44900 411.27487 318.10107 189.06491 135.49545 65.24343 39.93430 22.29436 34.91158 51.38374 46.13618 22.51621 20.04854 18.62110 38.46881 3.98579 -9.71411 -16.73575 -35.72053 -46.82761 -46.99744 -41.69426 -39.43910 -42.77622 -55.54497 -49.73634 -45.61655 -51.10075 -55.19261 -57.09699 -48.48884 -45.00100 -43.51629 -49.38610 -56.19206 -61.89549 -64.09770 -67.05978 -67.33285 -70.68762 -71.07275 -76.38769 -82.44060 -84.06211 -84.91508 -92.06672 -95.18605 -100.43927 -102.56718 -104.88751 -107.10831 -109.31399 -111.00668 -112.73802 -111.66937 -114.44492 -116.51271 -118.03517 -118.02351 -117.82182 -118.93331 -119.47011 -121.29411 -121.65564 -123.26233 -123.69646 -124.06585 -125.48879 -127.00288 -128.95635 -131.09918 -133.27682 -136.38634 -138.80661 -140.04862 -142.24604 -145.25181 -147.58849 -152.78483 -155.63688 -157.59094 -220.63272 -268.86991 -342.15979 -350.77119 -370.09955 -475.28650 -475.04040 -501.06979 -428.65529 -383.14956 -364.59374 -330.65408 -333.73126 -347.32807 -356.78321 -383.15375 -393.79217 -410.63254 -433.61897 -452.42477 -476.39287 -503.89027 -560.47770 -549.40679 -549.50679
524.08936 524.18936 442.21034 294.51365 265.31978 168.52259 156.36075 119.32817 141.54738 100.63528 142.35190 168.44301 180.54336 166.11727 226.63606 265.80085 329.50821 344.98891 331.21871 315.01530 301.73518 292.91984 235.93549 199.88859 193.78366 264.34280 288.75893 320.63557 363.55105 380.95178 439.63377 392.03927 300.49481 195.96272 151.70293 83.18025 48.30789 14.48303 14.25097 0.85901 -1.71239 -14.87299 -17.26274 -14.77315 -7.01688 -22.26969 -27.40786 -39.87500 -42.82376 -48.71866 -46.32296 -45.18804 -48.28925 -55.28615 -47.79111 -38.39549 -27.07897 -32.81842 -39.35531 -50.63693 -38.68850 -35.65090 -33.82114 -39.28341 -48.86365 -59.25513 -61.09408 -65.50912 -68.82869 -73.87807 -79.21918 -80.67218 -82.37010 -86.19412 -88.55276 -94.86567 -100.45548 -101.06768 -103.27841 -103.74943 -106.62385 -106.65744 -107.43002 -109.09925 -112.54807 -114.55883 -116.65575 -116.56684 -116.52484 -117.48461 -119.16003 -120.46326 -121.18469 -122.07762 -121.77844 -122.01417 -123.46772 -124.27058 -125.84928 -128.40442 -130.31652 -132.70663 -134.51866 -135.72645 -138.26473 -141.13305 -143.07372 -145.81361 -148.50763 -154.39249 -155.97070 -204.90454 -229.03016 -215.97837 -227.45670 -318.70375 -327.26011 -432.25341 -427.81563 -389.81777 -363.33133 -314.28870 -322.66769 -302.03039 -310.55936 -316.80841 -333.15269 -379.67235 -391.45796 -442.36397 -452.13944 -492.17036 -533.28551 -582.25378 -577.96585 -578.06585
526.11875 526.21875 442.39958 299.86894 279.99510 210.56730 180.09045 156.84387 151.12227 136.29600 99.71206 122.31129 116.99157 136.39881 190.92896 214.37388 250.55807 243.68514 258.06461 269.08435 275.91442 245.02577 182.36734 153.80906 147.54065 201.01292 268.04600 294.28926 286.50126 332.01142 389.87829 372.30784 329.76073 213.58711 174.21570 100.44175 120.50724 32.01576 34.97918 22.96510 15.65144 -8.49414 -8.91390 -15.90115 -30.53018 -33.02080 -36.42087 -38.05912 -44.41102 -47.72644 -40.63320 -34.01712 -37.16055 -36.88247 -39.29582 -34.84182 -19.89922 -25.96782 -25.50160 -32.18369 -27.07020 -26.62561 -27.87393 -32.01971 -45.13303 -51.36072 -54.50184 -61.66857 -66.64412 -76.93791 -79.44358 -81.22462 -85.68718 -91.57134 -93.91767 -97.46970 -101.02749 -102.25429 -104.59598 -105.91893 -106.21195 -106.80832 -106.70715 -109.49156 -113.59536 -114.44857 -116.32238 -115.71347 -115.48561 -117.28150 -119.15349 -119.94154 -120.62488 -121.08480 -121.26440 -121.29751 -121.83175 -123.56775 -125.06176 -126.14518 -128.66744 -131.08755 -133.14761 -134.51917 -135.74958 -138.61374 -141.72809 -145.34616 -146.05132 -150.97072 -154.47710 -155.42834 -161.93193 -165.90034 -198.21619 -228.80824 -262.24401 -322.22451 -331.82001 -358.58883 -324.34377 -305.57735 -270.87008 -288.98288 -277.61807 -298.06773 -314.66580 -326.66144 -398.34600 -419.97146 -452.89515 -555.73210 -560.66925 -588.02527 -639.86078 -639.96078
559.45583 559.55583 555.08604 357.28052 302.56542 264.25008 224.91894 221.14004 198.19441 147.46503 125.59408 86.58436 101.98781 116.43717 181.21492 188.85799 224.07804 225.70947 206.30403 231.23799 277.47286 256.27155 187.01491 138.86777 116.67085 159.56996 206.98660 203.45847 208.43340 292.01201 372.28902 358.13309 355.01169 284.37465 203.41564 205.96820 242.28425 159.80913 119.24160 97.01875 95.70246 57.07753 11.41805 6.05057 -6.47112 -27.98954 -25.04113 -25.97967 -30.78353 -32.98093 -2.91251 -8.67095 -10.63430 -28.42650 -12.85709 -6.11392 -16.13753 -7.98898 -4.03012 -13.13940 -23.22666 -20.36811 -20.09168 -26.47543 -40.63764 -43.34888 -49.68945 -53.64972 -63.28994 -69.55594 -78.29209 -82.17377 -86.39468 -92.32827 -93.04467 -96.78199 -98.42149 -101.55125 -102.69496 -105.02941 -107.20417 -108.92667 -109.33238 -112.09632 -113.41230 -114.25300 -115.76063 -115.14783 -115.69590 -117.17824 -118.45829 -119.49158 -119.78148 -120.18269 -120.13844 -120.92983 -121.83398 -123.25362 -124.64451 -126.71676 -129.04753 -129.32907 -130.51476 -133.38745 -134.90093 -136.36322 -140.66127 -144.30808 -145.27727 -149.41805 -153.20838 -154.93352 -158.52057 -163.31634 -164.01883 -201.96735 -217.65206 -235.73420 -289.23855 -297.02238 -295.94818 -252.73278 -260.50285 -242.62693 -261.65142 -256.60849 -285.26048 -317.98599 -382.27127 -417.77238 -490.71550 -561.43035 -632.31811 -698.17899 -711.28505 -711.38505
577.53210 577.63210 594.47151 387.73761 320.59897 299.50752 286.47676 253.14535 188.91422 170.11951 102.38302 53.10660 65.16384 74.91917 129.00221 128.47713 138.55034 160.34764 181.02013 230.84628 276.82465 289.77957 206.75015 133.64542 98.83027 89.97209 134.27308 155.52027 177.67050 259.26803 306.96512 356.48372 365.82571 311.69601 265.71912 249.34241 261.23390 238.62083 208.15245 173.58093 139.69555 102.99948 52.94715 16.60729 10.28415 -4.80205 -7.16733 -3.33816 -14.91228 -13.78673 3.82628 28.72757 27.73105 34.03135 26.27204 14.77907 -0.85439 5.28006 -1.48978 -5.69740 -13.27463 -14.18836 -12.24469 -21.21407 -44.54536 -44.00267 -44.18431 -53.64263 -57.85714 -70.26217 -78.77741 -79.62545 -86.28101 -88.42348 -90.02868 -93.04595 -96.55749 -99.12271 -101.53601 -103.48276 -106.66796 -109.31758 -109.10669 -110.05200 -112.61165 -112.81587 -113.66759 -115.45519 -116.04418 -116.90297 -116.86974 -117.97361 -118.84080 -119.57733 -120.66071 -121.13709 -122.08522 -123.86332 -125.65481 -126.99662 -128.91996 -131.16053 -131.86858 -134.44204 -136.42587 -136.20385 -138.98463 -142.82817 -145.64264 -146.43129 -148.70760 -152.93208 -155.38047 -159.04829 -161.15510 -164.94048 -169.36040 -194.55440 -223.37017 -230.12611 -224.16859 -212.20543 -225.21976 -226.14812 -224.83826 -232.20620 -259.44901 -282.43689 -344.44363 -395.92654 -502.96027 -562.67890 -644.06883 -703.39121 -757.52102 -757.62102
653.10171 653.20171 559.03050 442.12289 442.92695 342.37752 318.30391 252.09147 192.70762 134.89831 73.84713 55.06104 36.11678 50.31049 77.53538 82.23956 74.08233 143.37674 177.24944 213.82267 266.19398 274.05355 250.64235 176.14135 108.71673 77.10458 85.47421 119.09070 156.15724 228.58951 271.87641 334.80183 340.89107 335.38721 336.29801 330.22016 324.17655 300.61693 261.13320 215.66302 183.39758 139.83073 53.51003 46.19909 42.26165 39.79027 15.10816 6.51659 -1.18064 1.51625 16.74489 41.32302 54.62527 56.90205 47.69330 28.82025 28.29290 12.32525 7.19144 2.88679 0.92768 -3.52246 -5.86026 -15.98108 -25.44815 -40.69750 -45.63667 -55.68720 -64.70939 -73.62541 -78.97853 -79.88961 -83.89564 -84.69454 -87.58350 -92.85360 -95.72075 -96.14368 -98.88905 -102.16784 -104.79851 -105.47679 -106.52583 -107.32498 -108.90875 -110.71106 -113.03118 -114.81056 -115.38720 -115.37636 -116.09370 -117.37190 -119.11192 -119.83936 -120.76628 -121.63610 -122.93860 -123.77406 -125.47769 -127.15778 -127.58346 -130.23716 -133.63133 -135.19047 -137.58530 -136.86646 -136.20976 -141.51619 -145.03392 -148.04168 -149.44780 -151.78341 -154.54842 -157.30275 -158.00835 -163.36127 -165.60924 -167.58668 -173.48614 -206.29240 -189.72145 -190.71133 -186.66952 -187.48504 -191.37571 -198.85029 -225.56228 -268.28523 -302.44151 -335.63626 -451.20973 -564.78177 -604.32243 -740.37655 -746.39167 -746.49167
666.42069 666.52069 560.27245 545.31454 527.05056 434.78475 349.55510 277.13650 208.83906 178.61413 117.72380 79.91745 47.35978 46.13130 29.34629 39.83087 41.74248 83.43939 146.00497 215.32190 228.02094 270.36347 206.02785 173.91864 99.08618 70.88166 86.18528 125.15294 192.07913 243.93905 264.47769 259.07433 253.23114 282.33027 306.64663 331.79083 318.96692 317.91671 303.46167 272.14256 233.03843 178.82985 126.90870 86.12442 81.22627 79.03960 59.53096 49.78012 19.75094 12.70694 15.67896 40.08603 53.56921 61.29276 50.55971 42.17249 26.69653 11.46288 8.94626 3.34899 3.26439 -0.34393 -2.54924 -12.28014 -29.55018 -39.86387 -48.80338 -60.91648 -66.72301 -71.40230 -73.82031 -74.87489 -80.54765 -84.29443 -86.61365 -88.92902 -92.13432 -93.34121 -97.33970 -98.86925 -103.01520 -104.68830 -105.78722 -107.00155 -108.56026 -111.73541 -113.52998 -113.82648 -114.67697 -115.64353 -115.98280 -117.63602 -119.03233 -119.58374 -120.48453 -120.86191 -122.73075 -122.70742 -124.07986 -123.81394 -127.19378 -129.15452 -131.10887 -134.43480 -136.66807 -136.11845 -137.07848 -140.34303 -143.16338 -144.00422 -148.79413 -151.18620 -151.77482 -153.07609 -154.58152 -156.97466 -157.71816 -163.45447 -163.96222 -166.88429 -171.05632 -168.44815 -166.48073 -167.01340 -170.32283 -176.84272 -202.03229 -242.12001 -249.07433 -287.11616 -412.85145 -543.94674 -620.13050 -680.17953 -714.72542 -714.82542
670.32347 670.42347 686.37089 597.17526 629.76692 542.06861 476.53338 357.08220 281.43525 208.64961 163.76579 125.47393 67.73579 61.74319 42.47304 15.79200 23.82801 39.14856 101.56016 176.64027 197.43025 204.52028 180.46491 109.61515 89.64519 61.84383 80.06102 155.63467 188.96409 219.52497 243.90774 224.40005 197.74967 206.06595 223.68703 280.28642 291.69401 298.42880 303.15604 294.11684 268.22818 231.12059 169.03300 121.40097 133.50979 124.40027 98.99137 75.36782 58.31877 46.79499 22.59129 34.50063 41.64450 37.07192 36.20107 5.73565 5.40433 0.88485 -5.78020 -9.27705 -5.83016 -3.11260 -0.36662 -8.93497 -26.92466 -36.39984 -45.79824 -57.58985 -57.52176 -62.63561 -66.61864 -72.67362 -77.43646 -85.12284 -84.83858 -87.46305 -90.42861 -93.02999 -97.52470 -101.55375 -103.93537 -107.39684 -107.43351 -108.67916 -110.02582 -112.42691 -113.89284 -114.89396 -115.89702 -116.62806 -116.61192 -117.69605 -117.95912 -119.39107 -119.37562 -119.76588 -120.52496 -120.66209 -121.69156 -122.90993 -125.75350 -128.30307 -130.04352 -130.32807 -134.31068 -135.52806 -136.43599 -138.61254 -141.13997 -143.70149 -145.85205 -149.68050 -151.45890 -151.46839 -153.40814 -154.44300 -157.25428 -159.56974 -162.98010 -156.99852 -158.10850 -156.97756 -161.26759 -157.05489 -161.63430 -167.11494 -166.88052 -199.17758 -236.34335 -275.77067 -392.90032 -488.46437 -513.70949 -625.87458 -659.87309 -659.97309
767.99339 768.09339 714.82173 643.54094 639.31956 586.61072 499.51423 411.88476 316.89060 278.10737 254.60510 179.64703 128.53573 92.49386 49.17121 14.70596 12.36783 35.01114 101.34375 131.82811 132.25610 115.34521 129.30932 93.80122 65.92802 36.67762 90.45052 139.27348 177.51307 185.71883 178.06297 166.93353 146.91304 161.32913 194.06873 211.72796 235.75435 251.75188 267.81176 286.66435 270.19739 233.22037 177.71390 148.88230 142.70783 141.29617 126.09630 96.64734 81.46396 63.29835 30.04659 30.13314 30.16641 25.46218 1.03168 -9.00665 -5.35092 -11.56678 -13.61047 -11.77625 -14.03560 -7.90050 -5.79925 -2.37513 -15.37134 -28.66217 -31.56505 -48.92850 -54.59222 -60.29064 -66.99232 -71.52341 -81.55390 -83.38099 -85.89119 -86.05868 -89.70836 -92.96669 -97.94093 -101.53365 -103.94115 -105.73738 -107.27576 -107.82673 -109.64854 -109.05180 -112.28649 -112.30287 -114.64824 -116.50579 -117.79898 -117.78686 -117.32421 -117.69557 -118.04166 -118.48642 -118.97240 -119.99066 -120.51264 -122.94539 -125.45521 -126.35805 -127.82228 -128.92190 -129.85651 -134.51538 -135.03732 -137.82213 -139.08470 -143.55033 -144.98582 -145.34047 -147.45078 -150.43405 -150.45322 -150.34653 -153.83146 -156.46652 -154.30089 -154.07713 -151.08396 -146.73588 -138.26111 -142.30016 -143.55537 -147.52667 -149.70660 -177.02136 -193.77972 -270.38453 -308.17780 -438.42565 -440.05335 -536.70833 -582.73480 -582.83480
756.24965 756.34965 757.29097 613.30851 636.34950 626.73755 560.50468 488.52441 389.57318 323.89685 272.45320 178.39643 133.96197 82.25966 49.05110 15.22181 13.92323 43.35927 80.07318 117.97132 106.00617 86.98857 70.53368 52.94723 38.34151 42.93576 92.41615 155.66737 162.35012 166.04391 152.37765 105.89157 106.91167 157.45070 157.49162 150.73500 171.47115 197.61090 231.52134 256.95152 253.64135 218.85711 183.77875 152.97802 150.72319 139.65825 128.26470 100.49536 85.45312 65.92534 57.93542 25.44769 11.70928 2.44146 -10.86754 -10.29855 -8.70976 -14.64527 -18.75254 -20.78338 -24.99945 -22.80487 -13.18045 -4.88816 -6.07908 -18.94375 -29.05633 -48.14008 -53.07832 -62.20713 -69.72201 -77.14161 -79.98561 -84.51472 -89.00320 -89.53507 -93.50540 -95.94195 -100.50115 -100.90414 -103.39977 -104.26210 -104.12958 -105.71677 -106.63471 -108.45256 -109.32595 -111.50077 -111.99469 -112.76776 -115.06433 -115.29083 -115.27257 -116.75541 -117.46497 -118.13307 -118.13308 -118.46639 -120.69676 -121.94234 -123.26790 -126.09396 -126.73813 -126.66782 -128.07741 -132.27467 -133.80815 -136.82112 -139.28975 -140.35593 -143.20827 -144.45213 -146.53676 -148.18764 -148.40834 -149.93860 -149.67743 -151.17928 -148.92685 -142.83727 -139.97759 -134.25192 -131.34853 -130.04281 -134.99982 -143.69881 -144.59762 -154.73961 -182.97034 -206.01191 -233.81875 -355.41192 -381.41915 -483.39490 -496.04877 -496.14877
747.71980 747.81980 641.10343 600.42724 603.96283 613.63532 547.22327 449.00701 416.61542 324.28542 255.92792 179.54941 150.45454 110.29294 62.51117 30.62853 31.30907 24.44508 41.06235 62.46352 43.25103 54.58881 50.62165 23.85365 38.32961 70.63912 110.32463 154.33865 174.09439 141.37089 96.24573 78.82308 88.54651 127.26974 138.13831 120.36098 130.37578 147.64987 214.15945 235.87021 226.16108 185.19751 138.95991 127.45300 123.15751 93.96795 82.63078 86.59580 63.11974 57.21881 36.40438 23.23592 -1.56023 -5.12694 -16.02226 -16.19655 -20.42671 -22.65823 -25.97671 -29.55076 -28.16958 -28.99321 -15.43596 -6.60407 -6.87359 -12.81150 -33.89181 -46.65357 -60.86600 -64.58212 -72.25531 -77.02695 -80.21299 -82.85321 -87.85329 -92.50622 -95.92436 -97.74692 -100.87130 -101.59790 -103.24880 -102.23709 -102.46100 -103.79415 -104.66783 -107.19620 -108.63594 -108.74019 -110.55046 -110.14469 -111.43213 -111.30408 -113.86033 -115.13463 -116.94964 -116.67129 -116.84379 -116.91605 -119.47874 -120.91662 -121.24304 -122.89622 -124.28896 -127.24945 -127.71236 -130.47045 -133.16030 -134.17089 -137.71789 -138.93914 -141.91803 -143.91351 -145.31372 -146.03622 -147.07604 -148.17759 -148.64959 -146.41762 -138.22471 -135.78632 -133.46897 -128.04468 -128.73463 -123.98049 -131.66200 -133.12653 -138.84601 -140.34222 -155.71985 -166.86788 -188.27712 -261.41765 -307.66723 -375.56750 -404.84403 -404.94403
735.89871 735.99871 635.41981 519.02899 580.26009 596.15852 497.19960 422.57023 311.11442 290.28595 236.15055 150.20944 133.53776 74.42441 111.95955 64.55008 43.69152 3.42537 2.40098 8.03329 17.87048 11.84683 9.31758 -1.80426 38.24444 62.40062 108.93221 136.52381 143.39519 126.53944 89.73785 42.50102 45.22840 78.65664 94.34138 100.83747 137.83541 150.22213 204.06309 239.25375 218.84367 192.85972 108.41065 88.14032 65.77428 72.57098 60.15278 49.29584 49.68604 30.80117 24.64496 4.71091 -6.70560 -10.75176 -11.82701 -11.47591 -10.48289 -15.71590 -16.03776 -25.26674 -32.21289 -34.04683 -27.49622 -6.66316 -6.07143 -9.18504 -26.93259 -42.43923 -47.27766 -59.93342 -61.83888 -68.47387 -71.58854 -84.61130 -86.89598 -93.55348 -96.17263 -95.81834 -97.74714 -101.50120 -101.78787 -101.82209 -102.54366 -103.44778 -105.15218 -105.69149 -105.23764 -106.81447 -109.83156 -109.72628 -110.78190 -110.96301 -112.69793 -114.09021 -115.49087 -115.20953 -115.81839 -116.77400 -118.03504 -119.94529 -120.39455 -120.86158 -122.29193 -124.95043 -126.31225 -129.38130 -130.94666 -132.49025 -134.68378 -136.20477 -140.53888 -141.52919 -142.77786 -144.60187 -145.40606 -145.52327 -145.39658 -137.79140 -132.26346 -127.54325 -125.68687 -123.26334 -120.31700 -108.25854 -119.37656 -124.43376 -127.49615 -134.91661 -148.18828 -164.77967 -169.27117 -196.61940 -221.32051 -280.61040 -325.66688 -325.76688
623.35543 623.45543 555.01716 440.97609 466.00567 536.16735 499.24902 404.02782 311.68784 237.12046 152.26305 126.50239 120.05816 154.72481 146.19008 124.05475 56.06168 11.24387 4.86550 8.47037 17.13535 7.27768 -7.56083 8.92817 20.83956 46.14774 56.57171 110.70905 102.34910 100.01797 60.12957 38.67344 25.03745 62.97151 62.77170 96.42012 133.62886 183.76165 199.07919 193.78338 175.32493 117.86210 91.51028 62.65862 57.73365 39.78205 29.17093 27.15137 28.98685 22.62833 8.38779 -5.11948 1.04460 5.19025 -3.91101 -0.71261 -3.19316 0.99817 -3.19198 -14.66017 -29.10934 -37.00585 -34.01668 -17.58535 -5.27032 -10.08131 -17.74951 -34.02019 -41.79360 -51.58585 -54.88230 -58.92824 -63.49058 -71.12347 -79.31019 -88.36807 -91.61493 -91.48903 -93.65414 -97.10878 -100.56072 -101.31077 -101.98877 -102.56030 -103.22059 -102.71284 -102.01443 -104.06801 -106.78139 -109.05408 -110.49112 -111.36056 -112.63518 -112.78941 -112.86463 -112.98101 -114.22623 -115.97641 -116.24579 -117.69641 -118.51162 -119.93341 -122.06155 -124.42728 -125.21359 -127.75407 -130.39995 -131.31085 -133.18722 -135.81602 -138.14295 -139.50496 -140.05768 -142.22234 -143.99482 -143.22084 -142.35560 -136.61733 -132.87572 -122.94548 -117.44904 -109.92336 -99.66352 -101.46214 -102.44614 -117.71278 -119.63568 -131.01728 -147.19992 -150.92600 -161.78399 -188.92442 -185.71885 -243.73116 -252.57035 -252.67035
525.02364 525.12364 498.37649 437.04380 451.98565 509.52510 508.99549 454.74826 344.03254 243.14097 147.50734 131.82123 145.96836 187.55272 227.44108 139.23959 92.95352 54.79674 62.04462 73.30780 44.29604 29.31487 9.53996 1.35310 7.97284 33.34715 23.87701 27.98605 71.75545 50.29348 44.75923 16.33025 19.39507 24.40896 30.91612 68.89570 139.22388 161.99993 165.41649 170.30277 144.29572 99.16822 68.04226 56.75272 38.60321 35.22562 20.42840 17.28404 17.35484 9.95152 14.56032 14.19549 15.64486 27.07683 20.72148 12.93799 5.51026 1.54341 -0.15612 -6.73111 -22.68614 -34.36943 -40.45101 -32.11829 -10.90239 -9.97052 -13.76798 -25.18634 -33.37891 -42.22511 -49.94188 -54.81598 -63.22577 -67.84824 -75.89273 -86.91646 -90.19650 -87.28022 -89.35561 -91.86859 -98.49742 -99.12510 -99.58379 -99.18827 -100.76504 -101.27450 -101.06590 -103.98098 -105.01617 -108.19125 -108.96179 -109.94400 -110.99321 -110.38275 -110.80127 -110.82887 -111.40151 -115.07594 -115.67049 -116.70413 -117.73320 -119.66462 -120.70481 -122.68338 -124.24540 -127.11758 -128.65634 -130.59461 -133.22809 -133.95189 -137.57032 -138.96887 -139.94012 -141.37071 -142.08620 -141.18804 -139.29160 -137.70052 -128.96161 -120.72164 -118.64025 -102.03063 -93.74385 -95.16015 -97.50838 -111.26310 -115.48321 -127.95751 -133.89854 -148.48716 -154.03529 -156.60731 -172.85407 -189.62730 -225.50902 -225.60902
346.78902 346.88902 441.23652 380.68936 395.87636 478.03490 490.01571 471.89708 407.00778 263.96509 148.86045 174.81671 253.97252 286.62368 276.13978 203.59891 129.36734 104.12300 126.57633 126.67884 105.02154 63.49923 10.47999 1.29910 -6.84788 0.83280 -10.22084 8.37391 30.11542 34.42364 28.30341 23.25832 10.27762 19.44423 14.56527 40.49584 96.14448 154.68570 158.56909 162.12672 128.95451 96.23075 61.02183 43.75258 37.07264 33.30657 28.83633 19.08320 22.05956 34.65812 30.16382 22.42549 41.38281 42.07565 29.07685 16.60565 2.97958 5.30331 1.45905 -5.44786 -16.62358 -21.67718 -38.73654 -41.77231 -20.52597 -14.99303 -8.96439 -21.32866 -27.69331 -40.55628 -51.03088 -57.36232 -60.14478 -67.94255 -75.49493 -81.70547 -87.78020 -86.64111 -85.86204 -90.29897 -94.62221 -94.63267 -96.74631 -97.69269 -98.92710 -99.81677 -101.15323 -102.46772 -103.10780 -105.01856 -106.34225 -107.89949 -109.11021 -109.39658 -107.98077 -108.96508 -110.47285 -112.70870 -115.07654 -115.98695 -117.31134 -118.66990 -120.47022 -120.84934 -123.32052 -125.34070 -127.95137 -129.43246 -130.09094 -133.13695 -135.63600 -137.46783 -139.18264 -139.69859 -140.52012 -139.01949 -137.35590 -135.37810 -128.22913 -122.09288 -113.27342 -100.56259 -98.56799 -92.93602 -93.64060 -102.04073 -108.65236 -122.42966 -131.20842 -143.16592 -144.42661 -153.84571 -155.01322 -183.88583 -167.16540 -167.26540
490.67690 490.77690 377.92411 337.12052 365.99599 408.21608 448.66574 453.26406 454.98043 360.98983 288.14810 272.04222 316.03175 317.80740 282.28405 243.94024 176.00375 119.49385 180.12777 190.65065 144.88031 85.43846 55.82701 15.92112 -6.50036 -6.93446 -10.73559 0.39001 3.54696 20.12664 25.51070 24.37713 10.28925 4.72488 17.26570 28.86413 95.53123 138.45328 160.11135 161.99317 131.04606 88.96035 63.57059 47.53305 47.29559 36.28332 40.68997 55.13635 52.95623 43.72913 53.14999 48.91290 54.47379 47.33456 39.20095 15.44025 2.89195 -3.68237 -8.10890 -9.49674 -11.46756 -12.91358 -28.50836 -44.74144 -40.52513 -22.41947 -14.37189 -17.14128 -25.55751 -36.90757 -46.96590 -56.92462 -64.30954 -67.04946 -75.70171 -80.77786 -82.66376 -81.56033 -83.16611 -84.28484 -89.80379 -92.77094 -94.30276 -96.78536 -99.59108 -100.39444 -101.54508 -98.68633 -100.37346 -102.08337 -103.64583 -105.82799 -106.74193 -107.16611 -108.05793 -109.18477 -109.96439 -112.22972 -113.65232 -115.33660 -116.19894 -118.26593 -119.27597 -120.58717 -122.23144 -124.77080 -125.75371 -127.16038 -129.59679 -131.18055 -131.44784 -134.73714 -138.04707 -139.14919 -139.58167 -138.62996 -135.00681 -131.17961 -124.79124 -122.40899 -113.11690 -107.05152 -96.39844 -93.08116 -92.53755 -99.47602 -108.86498 -119.98852 -124.30965 -138.63802 -142.25666 -147.76455 -153.45633 -159.68461 -165.90888 -166.00888
484.33380 484.43380 404.78588 308.39456 324.71195 384.26934 427.73364 433.00225 458.89862 452.54377 344.95530 325.21763 330.45551 329.02390 306.27747 240.11415 174.02010 158.51308 198.43827 238.29482 180.77728 137.37785 69.86730 48.82431 30.90949 8.62902 -0.85465 -9.54043 -7.55571 -6.43721 3.19414 7.73598 -2.00757 -12.28728 4.47086 36.36481 93.36594 131.96231 156.14468 183.29846 158.86350 132.82841 98.98922 93.98008 72.73419 89.98252 85.68326 91.64213 69.89012 71.31155 63.46562 63.88007 68.77225 42.90149 33.83390 12.15704 -6.77588 -11.03057 -18.93885 -21.32991 -13.07812 -13.84589 -24.69118 -45.64991 -51.19930 -32.75129 -25.18980 -18.53809 -21.71233 -32.08777 -38.09717 -52.56130 -65.78236 -72.10039 -75.97040 -77.74853 -77.88975 -76.30481 -80.37122 -87.55863 -89.98611 -92.67970 -95.82359 -96.73515 -98.96763 -98.17165 -97.78735 -97.76121 -97.00727 -99.99716 -103.08036 -104.66850 -105.78828 -106.61856 -106.41311 -107.67039 -109.21714 -109.69433 -111.69241 -114.09003 -115.38330 -116.56555 -118.14397 -120.10374 -122.00245 -124.50241 -126.55647 -127.28105 -129.50462 -129.10714 -130.76319 -132.51204 -134.74682 -137.03847 -137.16136 -137.26259 -134.28687 -130.58552 -124.25350 -120.87869 -114.04043 -107.86925 -100.00449 -97.70914 -94.97571 -98.61385 -108.65897 -121.05015 -126.82139 -130.53689 -136.83802 -148.23734 -148.92322 -156.83160 -165.51981 -165.61981
453.45392 453.55392 381.89608 263.94783 254.89109 348.67444 414.49796 444.44133 466.96122 457.89223 423.49741 393.60172 396.08112 390.88978 345.34456 291.45521 248.12797 228.44990 283.92744 290.53961 243.21587 205.88660 120.40966 51.95339 42.27280 33.67146 12.94833 16.56967 -2.12603 -14.41823 -7.08149 -10.81062 -6.07958 0.31575 10.70671 58.43950 114.36884 137.56229 149.75608 176.08161 184.43389 160.45766 151.81635 114.97450 121.00726 126.36219 135.90305 108.72562 74.76050 75.33205 76.95586 75.63009 55.86686 33.28907 3.77693 -5.56406 -3.59584 -17.42758 -30.07211 -34.10688 -30.71538 -20.20090 -31.61157 -49.10172 -51.25422 -41.25361 -20.38831 -17.07515 -17.01785 -19.94916 -31.09705 -34.70921 -53.96773 -62.72602 -63.37561 -67.55162 -67.92353 -69.15008 -77.30776 -83.98046 -89.69438 -91.45505 -94.67973 -94.35069 -93.61033 -92.99471 -93.69906 -93.80218 -95.24729 -98.16459 -101.35387 -101.94003 -103.30822 -105.19877 -104.96312 -106.94318 -107.49715 -109.21872 -111.43834 -112.29277 -114.42732 -116.51169 -118.23495 -119.40747 -121.45552 -122.84758 -125.12899 -126.42949 -127.08601 -128.56211 -130.62253 -131.64861 -131.94765 -132.23378 -132.98312 -133.75897 -130.83993 -129.20795 -123.71894 -117.78203 -114.51379 -112.07967 -107.36715 -100.15089 -98.35639 -97.08474 -106.64989 -114.11081 -123.97980 -127.47839 -132.94964 -139.96145 -146.01308 -148.93544 -155.04221 -155.14221
449.10365 449.20365 359.38428 283.07626 255.39072 294.65894 377.52523 445.63157 501.20703 448.82987 412.44333 419.54293 447.97675 448.60852 405.10575 367.81198 299.27813 326.37956 385.08345 361.80994 333.60784 248.48984 195.54879 146.57755 92.46247 40.27248 46.71741 39.96447 9.17739 -6.00280 -20.76832 -21.34769 -4.61732 17.75074 34.42931 80.57857 121.70266 126.94584 136.77695 151.05246 168.91204 166.33523 155.69141 132.65677 130.23222 134.34782 131.23157 111.90288 77.12486 70.45467 66.89638 74.18926 54.30942 18.13001 -6.93636 -6.40771 -13.80337 -22.39160 -38.18375 -40.33969 -38.94247 -31.47783 -36.07355 -53.48099 -51.19904 -42.35674 -20.55720 -19.01446 -11.57794 -13.73208 -22.63646 -21.78326 -39.02791 -46.93543 -57.34164 -58.35657 -66.22567 -69.66137 -78.73614 -85.24289 -89.29804 -91.40567 -93.00792 -91.14374 -89.96231 -90.86756 -92.28301 -92.69647 -94.37073 -98.06049 -100.37398 -101.71145 -103.51672 -104.19271 -104.58337 -105.32275 -107.01165 -108.36655 -111.42211 -112.21434 -114.57168 -116.53305 -117.88188 -119.21109 -120.70662 -122.41015 -124.07324 -124.34609 -125.86744 -127.71260 -128.73406 -129.95642 -130.53281 -128.70344 -129.45783 -129.92108 -128.03229 -125.54762 -120.77448 -118.28166 -113.81264 -111.96439 -108.07762 -105.87227 -103.65716 -100.48027 -103.81581 -106.65416 -115.93983 -124.24667 -125.79985 -132.30904 -139.51200 -144.39075 -149.06845 -149.16845
390.48562 390.58562 396.41490 225.04563 220.93348 281.02119 362.79180 395.31497 444.76849 428.71402 416.23176 437.58790 452.91009 459.09993 423.80500 381.22772 361.22082 415.92988 467.33169 460.55555 418.39145 359.18104 210.34965 193.63968 133.18900 102.30641 57.09506 51.68140 20.25691 -12.97160 -23.44383 -24.13859 -8.57266 8.84383 36.88374 76.13797 108.54712 132.09665 141.69903 136.67783 143.45146 148.96095 125.27515 134.00643 121.72779 127.61001 120.09634 100.95263 58.97714 60.21498 62.46101 62.12829 58.93126 10.46351 4.87677 -11.11464 -19.97751 -32.69116 -34.32432 -48.32091 -48.76193 -44.40206 -47.32817 -57.46574 -57.63399 -42.75654 -35.60439 -24.03376 -16.33992 -11.25871 -17.98627 -22.66165 -29.46126 -38.89105 -47.84974 -53.89226 -64.41755 -71.48774 -80.68223 -83.26096 -87.03427 -90.25215 -90.89321 -88.61075 -89.06058 -91.14188 -92.06549 -98.37289 -101.72421 -101.32941 -104.75270 -104.87948 -106.05059 -106.36704 -106.97430 -104.91618 -106.83689 -107.92219 -111.16323 -113.64562 -115.48133 -117.40687 -117.81893 -119.48760 -121.12519 -121.42234 -123.55585 -125.05529 -124.88916 -125.83265 -126.60190 -127.68319 -127.92597 -126.89540 -128.38717 -126.75629 -124.94141 -124.69638 -121.90004 -119.64214 -116.03848 -113.79029 -111.08146 -107.85461 -107.72135 -102.28481 -99.41568 -102.86392 -105.83461 -117.67523 -122.92103 -126.13974 -129.77484 -141.90373 -140.81782 -140.91782
351.77000 351.87000 291.38723 221.46386 222.09084 248.89378 293.20159 348.21194 404.68675 435.44643 383.37022 380.63731 400.95380 447.03275 458.35918 444.79580 427.83726 431.13157 499.09964 520.11839 493.66428 462.66798 347.44629 266.05022 178.96727 151.56007 95.52173 57.06501 15.81809 -13.35253 -15.07122 -19.01332 -22.39015 -1.21455 22.81549 57.61677 98.45968 110.05680 127.17674 103.86736 74.50726 100.80133 99.48143 107.43478 119.18392 100.84363 94.38274 72.48128 44.33276 43.99721 54.39888 56.03502 36.78238 22.85801 6.72112 0.25521 -10.33206 -19.67104 -29.22160 -41.73546 -52.87302 -54.93541 -56.28948 -60.25044 -54.35274 -44.97790 -48.62863 -40.11817 -22.79579 -12.96458 -10.09038 -18.73652 -32.07528 -34.60738 -40.75882 -52.89173 -62.09720 -71.17784 -78.21881 -80.86496 -85.66521 -88.06608 -88.36948 -87.73788 -93.24370 -96.84215 -98.18163 -103.50372 -106.72869 -110.06681 -111.65734 -113.27490 -112.68346 -112.98426 -108.94659 -106.11861 -107.89293 -109.83099 -112.37965 -114.31302 -114.98267 -117.46841 -118.74634 -119.76692 -121.10894 -121.53844 -123.12372 -124.35598 -124.89893 -124.70321 -125.00010 -126.29620 -126.39957 -126.83866 -126.94036 -125.74239 -124.72993 -124.33086 -123.48762 -120.76593 -118.90252 -118.51025 -115.25055 -112.93996 -109.55797 -108.88652 -103.50096 -102.38082 -104.81364 -113.97509 -117.75486 -123.52145 -127.87960 -133.77888 -136.27470 -136.37470
328.51705 328.61705 269.30104 218.29190 220.74787 265.64175 276.84278 284.65721 317.13456 295.84692 281.71716 282.02919 319.78663 354.03207 441.65732 457.41904 452.77386 466.00404 494.58332 538.36764 548.77872 507.45447 418.93226 300.66514 171.49583 160.06521 95.24238 33.32854 18.89424 -1.74784 -5.80656 -11.16042 -21.95571 -16.58370 -6.12066 50.74074 73.19961 99.49613 86.11500 60.65533 51.48907 61.81139 62.77928 94.73748 80.81770 69.83696 67.16032 47.57591 29.41181 29.53010 34.67927 37.96663 41.07605 26.79367 10.48950 7.59616 -5.11922 -14.10914 -18.82739 -29.90022 -37.62126 -56.65223 -58.73874 -55.13229 -58.45038 -52.86712 -52.07985 -49.62011 -33.01732 -23.33852 -11.80590 -17.16418 -28.22679 -32.71685 -41.24596 -53.43641 -63.63685 -71.63161 -76.99501 -81.43094 -84.63088 -86.60783 -87.40964 -91.75445 -97.87322 -102.52963 -104.37011 -106.04688 -108.18857 -109.17623 -110.35354 -113.93053 -116.55040 -115.50439 -114.40545 -110.80547 -110.96328 -113.45128 -114.05739 -114.65980 -116.69231 -119.00577 -119.62486 -120.93654 -121.72484 -122.12794 -123.43865 -124.08818 -125.29002 -125.57861 -125.87244 -125.71185 -126.59800 -127.09484 -127.02030 -127.72596 -126.14991 -124.16521 -124.25603 -123.45903 -119.94882 -120.17204 -118.06181 -114.29625 -112.47680 -111.85312 -106.58022 -100.07566 -102.51828 -108.09695 -114.91498 -117.83811 -122.83133 -131.92363 -133.65972 -133.75972
281.07576 281.17576 291.66685 194.05562 204.19606 249.84153 286.72344 286.51546 258.52549 232.70927 224.86671 246.70474 258.24757 328.51663 387.15117 416.24860 430.40197 427.82641 453.35256 513.08626 528.66943 493.86531 387.56992 336.79429 201.31349 154.37015 100.65901 34.85778 25.36346 38.21562 25.39499 2.83909 -19.37270 -15.61721 -3.98918 26.18456 43.20748 48.83877 41.30735 28.68847 21.44979 27.25079 38.01159 38.67114 60.88292 42.06728 39.62868 30.74170 23.38034 7.26564 13.47882 13.55446 23.71671 24.46363 18.45833 9.57757 -2.23418 -5.55219 -14.71923 -21.82095 -33.01609 -42.05325 -44.10006 -52.40536 -53.99784 -65.18417 -58.53839 -51.75208 -40.97594 -26.08898 -17.80605 -19.56970 -28.95841 -33.00669 -41.52327 -53.86382 -65.26991 -73.26822 -75.80650 -81.82107 -84.34682 -84.93492 -89.00154 -93.08647 -102.77435 -105.26988 -99.26979 -102.87759 -100.96257 -104.73395 -104.51538 -112.19530 -116.66645 -116.93157 -117.37485 -117.80213 -116.13403 -116.81228 -117.28759 -117.17862 -118.78519 -119.53858 -120.67589 -121.16327 -121.36300 -121.79379 -123.19137 -123.26738 -124.55763 -125.49204 -126.93539 -127.23743 -127.50661 -127.41460 -128.72203 -129.36134 -128.07712 -127.15178 -125.35203 -125.61381 -124.88951 -121.83633 -121.89499 -120.13632 -114.47834 -112.56457 -106.56275 -100.57020 -97.35797 -100.13155 -104.62346 -114.58786 -118.98562 -129.97714 -129.09371 -129.19371
269.45329 269.55329 228.31978 182.75323 193.40318 245.05416 259.04781 268.85369 256.00056 223.41387 202.87613 213.87753 300.20472 322.64714 378.19323 382.86095 386.89204 359.43398 373.56900 340.67237 382.05654 358.87950 357.77555 280.22266 213.01890 172.64421 103.16297 64.37936 66.02620 66.14178 41.28305 4.04151 -7.01008 -18.56595 -2.78414 3.24588 30.24974 26.21053 6.14164 4.14050 1.94502 15.32161 23.70481 14.57069 36.34210 43.41454 42.08084 39.56061 29.46551 10.90238 2.00801 -6.08337 -0.84982 5.76049 10.86070 5.91983 -0.20286 -5.43044 -13.57138 -23.08029 -25.27152 -33.74633 -42.65525 -46.31615 -60.72233 -71.76234 -57.39098 -51.83395 -42.40543 -31.87224 -25.98829 -25.06863 -29.64413 -33.15251 -43.55870 -55.19902 -63.64360 -68.89691 -76.51528 -79.69104 -88.21662 -89.85435 -96.05811 -100.40412 -102.70915 -101.78834 -97.05960 -94.43282 -97.96956 -97.07658 -98.29862 -104.17196 -111.63821 -114.15768 -117.43220 -116.80236 -116.95335 -117.19169 -116.94373 -117.20628 -117.82464 -119.73122 -120.30584 -119.88315 -120.36866 -121.23373 -121.70198 -122.39332 -123.99804 -124.86625 -126.82076 -128.06067 -128.79771 -129.10260 -129.64528 -129.74926 -130.25006 -130.35570 -129.99717 -128.94048 -126.41822 -124.64153 -122.65576 -121.62611 -116.14870 -113.89268 -107.37980 -101.76824 -98.44432 -98.94528 -102.00741 -110.90592 -119.20207 -125.31653 -127.54390 -127.64390
265.98591 266.08591 224.59948 187.11010 179.71939 212.99983 242.85320 226.20507 218.80843 192.17888 195.71336 230.03474 269.56008 319.03852 332.47580 329.84320 311.10128 337.36197 336.97505 309.57034 265.61941 278.76335 307.37152 333.82574 257.51364 163.08893 144.59738 100.89519 79.30620 79.37518 34.03970 12.08827 -15.08044 -22.48144 -17.63408 -4.96894 -2.21482 0.06250 -11.38132 -6.55932 -5.54716 -7.00423 2.57826 3.47372 22.78624 41.26383 41.44584 36.98617 27.17400 19.89791 -0.12384 -2.94463 -6.93676 -1.69348 2.08775 2.92280 -8.29087 -14.95987 -15.33846 -23.16251 -24.66857 -38.64907 -51.58299 -62.46891 -65.83291 -72.81665 -62.19131 -46.94314 -44.55312 -34.38628 -27.98241 -27.24385 -35.04492 -38.85506 -45.95873 -51.98544 -58.60792 -62.03481 -69.58417 -76.09880 -88.69671 -93.80450 -99.97644 -99.68422 -98.93388 -93.98252 -90.05889 -92.15847 -93.38554 -96.98466 -99.01064 -102.73671 -106.95827 -108.82747 -114.25081 -115.79958 -115.54459 -113.98182 -113.63622 -115.19667 -116.11203 -117.69154 -119.31255 -119.66438 -120.02266 -121.24642 -122.26089 -122.80922 -123.34488 -124.64282 -126.59605 -127.39104 -128.87504 -129.51773 -130.53077 -130.43420 -130.75753 -131.10161 -131.11675 -129.45791 -126.59205 -124.93218 -124.24300 -122.92180 -118.63551 -116.50143 -110.89468 -106.78257 -100.85911 -100.99887 -102.08583 -111.24865 -119.41596 -125.10027 -127.63681 -127.73681
261.54367 261.64367 261.34821 169.58002 169.48825 210.81285 222.81954 209.24712 177.57280 189.55225 196.77021 226.97776 284.85060 299.58738 285.02997 281.23719 283.59456 302.87793 302.99011 275.86910 251.86853 269.72468 298.70379 327.66527 292.75173 208.02480 162.21244 93.38311 88.20442 56.64689 20.82623 -6.96633 -19.23330 -24.26413 -25.73366 -21.24549 -27.58875 -23.48836 -20.79492 -23.42398 -13.25853 -13.72217 -20.02111 -24.15286 4.29789 19.38252 34.56875 36.18270 38.03498 28.42445 6.98996 -6.90108 -11.02804 -13.95433 -12.57453 -15.50864 -14.17702 -23.49721 -22.14509 -23.08151 -32.11000 -41.90849 -52.82103 -66.28023 -68.72390 -73.01740 -60.52070 -48.37113 -45.42716 -39.06038 -45.40330 -53.22811 -48.91508 -45.49886 -47.59233 -51.99264 -55.46149 -62.60101 -70.90309 -73.23638 -83.48260 -96.38125 -98.95620 -95.07473 -86.75265 -85.95984 -82.56193 -87.43045 -88.62517 -94.36319 -97.58139 -101.39572 -104.20668 -104.25842 -106.55393 -111.44713 -111.66595 -112.18413 -112.57344 -113.78959 -115.32978 -116.74863 -118.00527 -119.37861 -120.51004 -121.68632 -122.70030 -123.25939 -123.99312 -124.82572 -126.62312 -127.45212 -128.64273 -130.50470 -131.36642 -131.23730 -130.61959 -131.50805 -132.21295 -130.91584 -128.79412 -127.77654 -127.58456 -126.65973 -122.92658 -121.20296 -115.03085 -110.98261 -104.78041 -100.56486 -103.71585 -111.18652 -117.53912 -128.90372 -128.17579 -128.27579
256.09266 256.19266 226.85112 181.18034 178.24077 188.80606 217.64397 212.34236 193.83741 180.72252 195.58155 244.12708 292.48534 292.47918 265.23717 248.27565 271.60336 295.43844 272.25036 240.76942 231.39994 250.84500 311.12843 325.25946 328.25629 270.47207 142.36350 94.81529 53.25080 31.79079 -9.54328 -13.34521 -19.01501 -6.72740 -16.93544 -29.67372 -34.63982 -37.31698 -33.88089 -21.93581 -18.24084 -21.95102 -27.31603 -23.82304 -17.33676 15.55391 28.43543 38.88311 41.39474 30.71366 12.86332 4.96592 -7.31584 -12.55749 -19.44357 -20.82850 -23.79069 -33.32496 -30.01472 -28.29968 -33.55702 -48.02500 -59.83345 -61.80336 -64.14419 -66.56066 -59.81023 -50.24160 -50.42678 -53.13976 -60.13164 -62.53697 -53.54811 -46.59594 -52.15906 -59.98215 -60.15495 -65.45005 -70.74841 -74.69185 -85.34699 -93.60654 -97.78943 -95.41934 -86.02676 -78.21726 -77.71676 -81.19109 -83.67595 -89.97168 -95.91487 -101.07694 -104.42661 -104.24342 -105.77030 -107.87723 -111.01861 -112.32791 -113.32270 -113.79510 -115.41746 -116.80333 -117.31124 -120.36899 -121.23300 -122.07465 -123.17659 -123.60184 -124.10374 -125.90212 -126.88801 -128.76842 -130.22657 -131.16570 -132.28632 -131.64702 -131.72229 -131.70895 -132.39345 -132.29066 -130.80984 -131.05217 -130.26737 -127.89453 -124.59662 -122.33435 -119.81691 -114.81448 -106.57768 -102.74306 -106.31518 -112.71324 -121.38360 -128.08069 -131.20006 -131.30006
259.80278 259.90278 230.78836 180.69113 169.49248 192.44785 203.25216 204.02084 186.93430 179.09917 190.75555 247.92141 296.62584 291.85397 241.96741 226.75620 240.64941 266.93034 262.68939 238.62882 205.80539 240.06283 266.73989 305.16275 329.34757 301.25509 179.24439 80.32815 65.10141 51.71976 35.89689 19.68718 7.95084 3.19086 -8.95729 -20.46736 -30.35481 -31.81402 -35.94466 -24.45189 -10.33200 -11.98881 -27.40241 -41.15386 -41.86270 -20.63756 31.84658 37.34867 40.81537 26.54872 7.29875 3.90408 2.44648 -4.94117 -17.65574 -23.97033 -25.20683 -32.62672 -37.00858 -32.78782 -33.06028 -47.48333 -55.79182 -55.71696 -53.07734 -61.36928 -66.12015 -70.49259 -64.93795 -70.63956 -77.07160 -62.27780 -58.72185 -55.46676 -57.03205 -68.60962 -61.05062 -73.25929 -79.26218 -90.17397 -90.97367 -93.27494 -100.47503 -93.64771 -87.36236 -77.23169 -76.44101 -78.93312 -82.35684 -89.32557 -91.85461 -99.05323 -103.86226 -103.76631 -103.92077 -107.01347 -110.34232 -111.21589 -112.42889 -114.88069 -115.99188 -117.66733 -118.89457 -120.60395 -121.77927 -122.62227 -123.45434 -124.80481 -126.23641 -126.74225 -128.69532 -129.37213 -131.07891 -132.29353 -133.38996 -132.60527 -132.49664 -132.62162 -133.08896 -134.13347 -134.00866 -133.52772 -131.62068 -130.77459 -129.53733 -124.58689 -122.31738 -116.17500 -110.07343 -108.86083 -108.25837 -121.17426 -122.92756 -129.52419 -133.59568 -133.69568
268.87536 268.97536 269.99171 175.52705 168.53614 186.12208 189.87868 191.23092 176.25070 167.72834 200.35049 217.85562 267.81223 280.00651 231.60309 212.85267 218.31637 229.63927 222.59924 207.46873 177.13690 199.09463 258.12702 286.84666 288.35750 231.12528 205.87438 131.34185 102.18727 72.50306 54.60649 32.04445 29.93142 13.36750 -2.41522 -14.83041 -1.05840 -19.47271 -33.66918 -26.85659 -12.07952 -2.88693 -28.58625 -37.87773 -46.94763 -27.90810 12.57941 20.52798 24.59613 16.07829 -2.06830 2.56767 5.16304 -0.42291 -11.42551 -14.21127 -25.37828 -32.43644 -40.29721 -42.26845 -41.31262 -49.94112 -53.11866 -54.44545 -51.30876 -58.51561 -71.27086 -68.42793 -65.72517 -82.57118 -81.73470 -74.36415 -67.28154 -68.38303 -74.79344 -82.90326 -87.53146 -87.95351 -90.90183 -93.58780 -95.47657 -92.24455 -91.04514 -84.49351 -80.56698 -73.48483 -76.19613 -78.68312 -82.48204 -85.86442 -92.54468 -96.72497 -100.60571 -103.34611 -104.49090 -107.65816 -108.41400 -110.65486 -113.15474 -116.09206 -116.73002 -118.24824 -120.09517 -121.13685 -121.49733 -122.21125 -122.74675 -126.06155 -126.47922 -127.32094 -129.52919 -130.70213 -131.99486 -132.21712 -133.84253 -134.47051 -134.01841 -133.78055 -134.30168 -134.98967 -135.24531 -134.52331 -134.02896 -132.51376 -131.99383 -129.78830 -125.83048 -121.68158 -118.16994 -112.71756 -118.86426 -122.20903 -128.13893 -133.88404 -136.16459 -136.26459
281.41797 281.51797 245.52436 202.79000 177.42289 173.18819 175.75607 170.02122 166.82843 172.65954 207.10849 217.74548 251.18820 271.15271 236.10859 205.59642 201.78582 183.84134 189.09597 187.92922 179.01263 192.98777 221.68700 273.92826 239.25019 251.18141 190.68276 170.30467 126.87398 82.86301 64.04835 41.31672 23.51119 6.70683 -7.78049 -7.06052 5.17043 -2.69176 -32.96118 -38.12077 -28.17798 -19.57370 -25.58970 -39.58569 -57.65747 -31.72469 -21.75281 10.67440 4.10718 -6.89718 -13.58945 -0.68035 6.99265 5.88441 -12.68528 -16.71628 -25.59096 -28.80741 -38.45329 -44.77708 -46.68988 -48.40748 -44.97323 -42.76446 -43.81294 -56.33176 -63.44540 -59.68250 -63.14378 -75.07225 -80.94548 -79.27592 -78.54627 -82.72503 -88.66853 -90.81013 -90.30306 -88.38475 -87.12533 -89.50774 -92.19553 -88.51594 -76.84195 -70.38861 -71.12854 -73.62824 -77.33138 -78.97996 -80.15875 -88.54410 -91.45207 -97.06760 -99.23629 -102.01124 -105.41171 -108.62127 -108.95031 -111.96955 -113.89045 -116.53665 -117.99435 -118.57731 -119.96988 -121.09807 -121.20811 -121.77016 -123.17810 -125.28710 -128.02486 -128.79971 -130.54060 -131.10642 -132.49682 -133.30622 -134.92035 -135.46778 -135.54258 -135.50082 -135.87584 -137.86312 -137.09901 -134.94029 -135.25610 -135.32716 -135.35378 -132.69264 -129.98137 -127.80783 -123.33161 -122.82396 -123.42547 -125.10413 -129.75543 -134.26238 -139.52072 -139.62072
272.47535 272.57535 241.52221 199.55986 193.66862 169.29811 166.38061 166.43483 164.22408 171.62660 220.49414 243.58525 262.03468 269.68532 229.89768 207.12260 177.61585 178.76635 181.10114 183.89270 177.40169 167.71820 204.86828 222.17398 241.37964 246.96207 226.51379 187.61709 126.37532 100.06345 34.71866 25.78374 6.37340 20.00944 14.76979 31.93785 31.65016 9.89815 -32.69308 -43.14587 -37.85348 -34.27037 -22.99352 -46.56272 -50.80872 -45.79117 -27.95286 -24.01457 -15.11561 -17.39342 -23.40547 -12.49542 -6.97625 -7.40008 -17.60153 -21.82718 -24.10460 -25.52861 -34.56956 -39.11594 -48.69207 -41.26861 -32.96568 -31.77319 -35.03866 -44.60414 -57.65939 -52.35224 -51.95826 -61.38369 -68.07379 -68.64149 -76.57552 -82.03892 -88.51356 -88.83241 -82.22396 -80.48939 -75.45676 -81.01321 -78.91633 -73.88445 -68.63473 -69.86698 -69.79184 -71.95277 -76.52277 -79.61043 -83.03091 -88.89275 -94.13579 -96.55662 -99.06248 -102.00216 -107.32842 -110.24828 -110.20230 -109.03537 -113.50186 -115.47516 -116.41030 -119.60332 -120.00316 -120.67009 -121.78152 -122.83289 -124.61254 -127.39876 -128.45205 -130.20341 -133.37605 -133.59696 -134.50287 -135.00611 -135.71819 -137.25639 -137.63103 -136.39874 -137.74713 -138.41591 -139.24869 -136.99061 -137.58166 -136.74487 -136.22625 -134.99627 -131.68731 -129.30177 -128.23082 -131.84649 -127.70861 -133.08322 -134.60812 -143.41801 -143.11832 -143.21832
267.34400 267.44400 245.58586 208.62131 204.58361 182.47405 164.81740 167.03780 170.92710 185.95028 209.54564 225.74524 241.16610 258.83244 230.63134 183.78014 182.07485 169.99218 169.79166 173.55154 172.44778 180.82123 195.14899 212.26099 237.67770 254.11182 238.46294 191.64312 129.39308 97.05129 41.87498 12.92604 3.08768 21.81793 54.10076 61.77420 57.31366 30.25126 -5.98065 -30.64942 -30.85054 -25.77707 -34.39921 -43.62960 -61.47857 -52.68763 -56.39355 -55.31580 -57.96589 -43.02926 -39.17587 -22.62461 -13.72429 -29.68914 -33.64616 -36.57501 -30.93985 -24.94061 -17.59193 -23.82550 -30.64724 -34.47765 -25.55320 -31.03297 -30.96316 -43.15327 -50.26809 -53.54905 -54.41608 -54.71831 -62.90333 -58.10242 -65.07082 -77.70784 -79.00780 -79.72005 -66.39854 -64.44551 -65.30347 -66.07755 -63.86641 -63.80765 -66.09332 -68.35559 -70.32774 -73.30199 -78.72705 -80.75917 -85.55330 -89.63180 -94.49782 -95.75372 -99.01352 -103.35811 -106.99133 -108.31654 -108.06033 -107.87046 -110.17380 -112.08682 -115.48523 -117.76274 -120.49940 -121.80324 -122.43452 -124.21817 -125.87483 -128.37935 -131.14041 -133.10476 -134.39956 -134.66958 -135.48690 -135.57608 -137.34421 -137.92814 -138.31253 -138.77085 -138.99540 -139.48696 -140.37975 -140.41626 -138.71644 -139.59126 -136.74423 -135.11991 -134.14015 -132.91860 -134.35358 -134.85895 -138.19025 -139.28853 -142.77529 -145.87944 -147.73913 -147.83913
241.66086 241.76086 236.25413 200.86083 195.50077 174.89892 170.62420 162.76834 170.09170 184.40990 192.44983 222.04334 238.03680 236.18259 215.51137 207.04050 187.41784 166.19000 160.64404 163.22028 166.53358 178.68805 199.94305 224.30167 237.45754 261.10191 239.66620 171.10186 148.15511 100.30313 45.43216 9.72182 14.63537 27.48674 81.20653 92.29012 63.36363 50.26570 11.28705 -6.22991 -7.46089 -15.96248 -22.20108 -37.65720 -57.62312 -56.33116 -64.03640 -59.19947 -63.19877 -58.54492 -56.11299 -30.05759 -38.79134 -35.09379 -48.70066 -45.36511 -31.51837 -21.87471 -17.61922 -12.21908 -21.81113 -22.96500 -24.03598 -29.15779 -33.74701 -37.63767 -38.82955 -44.83979 -46.11626 -50.83482 -48.98012 -51.33979 -53.86576 -64.13908 -66.44722 -64.10236 -61.89247 -61.37920 -63.49366 -62.13963 -59.84341 -60.42180 -63.92924 -67.63417 -69.81430 -72.70857 -79.29410 -81.85421 -86.76174 -90.75496 -94.17436 -96.50153 -99.78894 -102.96594 -105.46449 -107.42835 -106.16841 -105.62266 -108.85435 -112.38960 -114.05746 -117.43647 -120.62801 -122.98165 -124.17651 -126.15221 -126.87788 -130.05454 -132.56437 -134.23995 -135.38529 -137.41394 -137.66987 -136.83240 -137.36893 -138.60599 -139.81673 -139.06863 -139.42980 -140.21668 -141.83704 -141.33200 -140.29698 -140.41433 -140.36719 -138.02936 -138.18952 -138.80695 -139.75207 -140.66619 -141.58004 -143.57290 -148.71019 -153.04546 -154.20865 -154.30865
227.35744 227.45744 210.69563 192.88561 193.62049 179.59887 169.86455 163.51591 165.38926 175.47974 185.31248 205.45839 213.07013 225.42186 219.81996 210.85250 198.76099 185.30130 160.20579 162.24596 167.62451 177.62367 198.04808 201.63284 242.76926 258.03203 241.05873 186.35304 138.68887 77.02912 57.80972 38.83294 61.80736 96.65139 135.64020 130.23875 105.93893 67.67212 20.28235 -0.58809 0.84291 -10.39878 -24.45354 -43.03659 -50.30626 -47.17729 -45.53336 -54.70471 -57.13561 -58.91042 -67.31260 -60.79486 -46.19794 -56.74371 -56.84859 -51.76059 -41.89539 -27.49831 -23.02853 -13.89397 -17.40466 -18.39245 -23.95384 -27.81450 -30.34850 -30.66855 -34.16112 -31.93554 -40.83302 -43.14179 -40.73463 -48.21655 -51.36828 -59.19999 -60.68000 -53.83833 -53.26843 -54.77587 -55.76315 -60.64379 -61.65218 -64.12851 -65.50458 -68.31453 -71.53012 -76.57759 -79.14804 -85.93063 -89.73712 -91.69358 -94.81031 -99.12711 -100.64146 -100.52674 -103.00281 -103.83099 -104.92148 -106.26469 -109.79850 -113.10890 -114.99758 -118.83768 -120.81464 -122.83391 -125.24771 -126.89252 -129.68073 -130.49676 -132.17690 -136.06529 -136.77317 -138.77171 -138.61829 -138.22701 -139.70188 -140.43307 -140.96757 -140.58906 -140.42622 -141.17229 -143.43986 -142.93812 -142.46530 -141.12429 -141.04854 -143.12713 -140.39219 -144.50600 -146.85830 -150.76676 -149.84510 -151.93772 -151.73761 -159.90519 -165.80148 -165.90148
224.01027 224.11027 206.41006 180.84232 179.54968 172.75692 165.04441 163.24661 161.47820 163.69052 179.29458 180.17969 188.21318 194.23783 204.88306 202.05434 195.42271 180.90663 163.75434 163.18201 167.41190 195.67436 206.17357 229.15541 245.75599 254.09207 240.57509 199.84913 179.52572 109.72938 63.96813 59.03246 67.80160 101.46020 141.95339 140.53315 133.64569 75.36508 30.50403 23.52711 22.81781 -9.66503 -20.98629 -40.83680 -45.68434 -34.16384 -22.75584 -29.07850 -44.71562 -56.21382 -61.97866 -61.99024 -54.60941 -54.06559 -59.74866 -62.66716 -56.40168 -44.92096 -26.37143 -24.71274 -25.41577 -24.17686 -25.09599 -36.15892 -34.68515 -30.16723 -32.61928 -32.80624 -36.24509 -39.18578 -39.60505 -42.24669 -49.49770 -53.07909 -53.56930 -51.30798 -51.66314 -53.37018 -54.96970 -59.90241 -63.74496 -68.37139 -71.59859 -71.92453 -73.65231 -77.17921 -81.11831 -82.81836 -88.39902 -92.63115 -94.96499 -98.87951 -101.42277 -100.77899 -100.16563 -102.54686 -103.97559 -107.25325 -109.49890 -112.62374 -115.87628 -121.03566 -122.18826 -124.04298 -125.36395 -129.33558 -130.52497 -131.25363 -131.98411 -135.45727 -139.00304 -139.34940 -141.00957 -140.53371 -141.09927 -143.11789 -142.70623 -141.89838 -140.95604 -142.41272 -143.31249 -144.66876 -143.16105 -144.49334 -145.71694 -144.66154 -148.47583 -149.55328 -153.10801 -154.42760 -156.17878 -156.28241 -156.27387 -167.27100 -173.92948 -174.02948
210.73807 210.83807 217.82848 172.08393 169.62165 163.74345 162.59420 162.06914 160.78641 163.44580 167.20973 178.30173 190.37852 192.75929 203.91160 198.29785 188.70213 170.75503 163.50169 159.32148 188.24286 206.89025 234.28490 248.10368 256.32460 257.91865 243.87022 239.87618 190.92678 149.76303 121.82948 125.63358 126.86794 117.78841 135.93137 170.52438 154.90054 110.98684 70.63173 46.21015 26.37792 0.66876 -21.91502 -35.71972 -35.52840 -7.17726 -3.10761 -21.85615 -29.04177 -46.62281 -52.33709 -40.72570 -37.62145 -39.20563 -52.72086 -60.84643 -67.33319 -51.61136 -50.26262 -26.58871 -29.98545 -25.99908 -37.70775 -42.62196 -40.41753 -34.78745 -35.20840 -37.14523 -38.76908 -42.77707 -40.69407 -43.01144 -46.58480 -49.01918 -49.18344 -50.03125 -49.83281 -49.70720 -55.18796 -58.63552 -67.41486 -72.63382 -73.77744 -74.93034 -79.84199 -80.65884 -81.86602 -84.50184 -88.74409 -93.20004 -95.04570 -98.90548 -99.14321 -100.25128 -100.11324 -101.24475 -104.45659 -107.55928 -108.30380 -112.46092 -116.00367 -119.73232 -122.55825 -125.65001 -127.24429 -130.64081 -132.08035 -131.73151 -132.90726 -136.75120 -138.99806 -140.97290 -141.82460 -143.84399 -145.07372 -144.30712 -144.19488 -143.55362 -142.18422 -143.26293 -144.55954 -145.04096 -148.60628 -146.44852 -149.20138 -152.99315 -154.46806 -155.74354 -156.99523 -161.26978 -162.15316 -163.12371 -164.86522 -185.58159 -175.43380 -175.53380
221.33262 221.43262 197.81503 178.45639 165.94658 164.40689 160.78650 159.86981 159.67239 160.34927 164.61666 173.90927 180.46158 186.36369 191.56678 184.64829 173.02440 170.69148 162.69039 163.01357 166.92315 202.33004 223.57347 248.65826 251.65263 258.09298 252.09634 241.16018 238.98403 183.13572 176.42848 161.19945 201.06423 182.93115 174.16855 186.48284 174.05185 131.52277 96.34887 79.74393 36.20691 1.12145 -25.24270 -31.28592 -14.97934 3.21904 7.67080 -17.07896 -36.67908 -40.16777 -38.63062 -28.63527 -21.26716 -20.79116 -31.21826 -56.48034 -69.34403 -63.53953 -59.41594 -46.78861 -32.36595 -38.36806 -44.54929 -58.07363 -49.13145 -44.38157 -42.33316 -43.61894 -46.47952 -46.45957 -45.19034 -45.51133 -47.26193 -53.60006 -55.10140 -55.66895 -52.09269 -51.98159 -56.65172 -63.75638 -68.94657 -70.48912 -75.33059 -80.30566 -81.43714 -84.10906 -85.53985 -86.73868 -88.01542 -91.27392 -94.56599 -96.99506 -97.64306 -96.50290 -98.09760 -100.97977 -103.70705 -105.66645 -110.13480 -113.26850 -116.68249 -120.64193 -123.29474 -123.16384 -127.85086 -134.15631 -134.63230 -134.44065 -134.21939 -136.72296 -140.08044 -142.02854 -143.69251 -144.87871 -145.55588 -145.26938 -146.38398 -146.14138 -146.74314 -146.34237 -146.99735 -148.22263 -149.78281 -151.30186 -152.68713 -154.43510 -157.72550 -159.63637 -164.36334 -166.17607 -170.19844 -170.23553 -178.65611 -188.92949 -211.58484 -211.68484
239.49100 239.59100 205.98101 180.11461 179.93566 164.90402 160.07084 159.77585 159.95146 160.62208 162.15202 169.75808 168.90277 170.62406 168.42289 173.27792 172.34663 163.63612 158.82471 163.45216 171.66388 187.50925 211.94555 230.74864 247.72982 246.37594 252.41707 244.57032 236.37390 236.98441 244.43090 246.00686 228.52164 250.25268 223.49546 216.67127 192.01439 171.46797 138.62807 82.82398 41.07746 11.30392 -10.88079 -21.19300 -2.52742 29.82390 15.62706 -11.90149 -22.87628 -36.25297 -21.18754 -11.63086 -11.77576 -23.80252 -33.94957 -55.00438 -66.87183 -70.18594 -68.49411 -51.34582 -36.22694 -36.84746 -56.69950 -61.08553 -60.44411 -49.55172 -52.12895 -49.12775 -49.49848 -54.88559 -55.62446 -53.62228 -50.23749 -56.35266 -62.33638 -60.86935 -57.99412 -57.02098 -58.10287 -65.33660 -68.52567 -70.24709 -74.18382 -76.70404 -80.91222 -84.52930 -86.51000 -87.91844 -90.79296 -91.63491 -94.69367 -95.73380 -94.89654 -95.04473 -99.00411 -100.27465 -102.87619 -107.01246 -111.74366 -112.86193 -116.95326 -120.73173 -121.63353 -124.28658 -126.65222 -134.85956 -136.20450 -136.94892 -137.10533 -138.35051 -140.51564 -142.53746 -144.92554 -144.94175 -146.12848 -147.00103 -147.76359 -149.35233 -147.46917 -146.84065 -147.59589 -151.23685 -152.58777 -153.32958 -155.38554 -156.68036 -158.60460 -160.54128 -165.74449 -169.51233 -173.67550 -202.18979 -213.04895 -217.85973 -262.55596 -262.65596
280.69324 280.79324 255.47133 193.95800 186.98704 178.46187 164.47000 160.35994 159.98121 160.18800 160.48056 162.04099 163.88052 164.27647 166.64217 168.35486 166.01366 162.43169 160.37922 162.53907 172.11802 178.56636 196.48956 221.05406 241.15311 242.68903 249.17764 246.68866 246.63246 245.29677 248.72920 256.43986 257.92842 261.68388 241.58825 231.93633 196.57426 175.49637 156.00364 97.28698 56.19639 23.00302 19.81607 23.81417 38.30944 56.34077 25.80507 -4.97719 -12.01008 -9.09033 7.07184 4.01833 -10.96476 -18.09640 -39.56794 -52.85563 -57.10536 -69.56819 -65.61687 -60.14777 -44.23527 -45.25424 -52.40662 -72.18348 -72.08474 -66.63470 -56.61366 -53.90296 -54.82896 -61.14189 -64.07050 -62.73433 -58.78390 -61.06778 -69.94410 -68.20370 -63.03510 -64.22554 -63.70505 -70.14833 -71.16769 -72.10107 -74.45043 -75.97423 -78.66454 -80.51257 -85.21228 -87.12342 -89.49321 -90.45356 -92.58992 -93.17030 -94.70764 -96.57190 -98.41245 -103.62946 -104.82065 -109.23633 -111.25132 -114.23399 -116.39042 -121.53728 -121.73130 -124.81302 -129.30239 -134.57144 -139.25271 -140.61490 -141.01245 -142.24646 -142.59929 -143.07988 -145.14976 -146.10010 -147.26186 -146.82101 -149.24104 -150.34537 -150.56776 -152.91465 -150.76243 -151.68351 -154.28469 -155.80561 -159.30344 -161.84078 -164.10723 -188.94480 -190.67427 -208.72126 -243.08583 -260.08182 -266.68198 -310.87821 -306.15710 -306.25710
293.92978 294.02978 256.87582 198.75626 187.45489 180.88815 172.91982 165.58982 161.22945 159.88664 160.04697 159.47957 160.82895 161.86909 162.51653 161.34323 158.73407 159.81369 162.83794 166.50391 173.24741 175.64088 179.62016 194.77495 217.61944 232.00413 240.60663 250.95341 257.26885 259.14954 264.68095 258.28078 250.80570 247.84851 222.73683 194.54837 182.17706 168.77493 144.36487 89.30882 61.35759 59.07449 84.45847 74.85187 72.18856 62.34843 32.71197 17.45974 23.69400 34.11026 22.58207 6.83783 -16.47843 -32.58529 -42.78477 -43.22601 -45.03779 -53.00092 -68.34358 -63.76753 -45.81676 -49.79815 -64.87828 -72.18880 -71.00632 -71.78787 -70.10539 -61.47938 -61.54083 -66.67608 -69.42123 -69.47344 -66.71599 -66.54094 -70.54611 -74.98432 -73.86508 -67.86079 -71.48713 -72.15773 -76.40104 -76.62049 -77.75859 -77.30473 -77.05729 -78.16185 -81.77082 -85.03386 -85.67561 -88.06843 -89.59244 -91.86220 -93.27906 -95.46356 -99.04882 -103.27378 -109.35761 -112.06875 -112.72691 -116.84048 -118.53297 -121.16401 -123.56976 -129.18917 -130.40969 -136.80009 -142.87839 -143.16951 -144.05131 -144.61057 -144.41219 -146.86714 -147.96736 -150.34413 -149.50249 -148.84211 -150.24078 -152.56715 -154.64642 -155.22944 -155.27661 -154.93795 -156.25219 -158.97792 -164.53805 -167.09360 -183.98545 -201.63956 -252.66254 -298.52390 -290.18582 -312.58576 -312.40346 -335.45848 -348.58864 -348.68864
289.11638 289.21638 249.14626 197.49968 183.57616 188.87525 174.46185 175.85771 169.49342 161.23358 161.04746 159.74053 159.45419 160.60855 160.88039 159.26036 158.47689 159.76604 162.38824 166.46799 170.40256 171.97939 175.45465 190.80716 203.52898 217.41342 237.76608 246.86320 257.14024 261.96929 263.39577 261.00790 250.09392 230.46727 211.44231 194.39011 176.53927 164.95686 140.62377 101.92249 68.31910 71.79060 96.49231 128.76589 89.79443 85.15747 74.95841 48.05332 39.43849 34.00629 43.74331 4.21584 -15.24123 -19.81195 -34.50597 -21.63305 -28.44381 -51.06494 -63.65258 -69.23993 -63.25615 -66.39293 -67.56926 -69.62624 -66.42292 -68.22627 -72.30285 -72.49853 -69.26503 -66.65026 -74.73162 -74.80688 -68.80555 -69.77420 -70.96746 -74.38152 -75.10955 -71.91732 -72.94546 -74.34416 -76.32089 -78.06187 -77.28435 -77.56366 -77.16669 -78.07484 -79.26469 -81.58884 -84.44418 -86.84800 -87.67108 -89.73972 -93.49734 -96.67878 -98.19218 -100.55861 -109.56448 -112.18335 -115.51819 -118.90835 -120.66352 -121.51487 -124.20823 -130.30534 -134.84488 -137.65987 -143.01905 -145.17625 -145.38998 -148.35771 -149.63855 -149.15709 -150.18608 -151.08359 -152.61354 -150.34350 -153.11506 -153.28460 -154.75930 -159.32753 -159.29728 -158.47387 -165.11840 -163.56387 -168.19966 -176.08718 -188.48323 -240.93865 -283.17661 -310.37249 -341.25041 -336.43091 -345.16923 -392.90014 -384.53606 -384.63606
