763.47531 768.60836 664.42666 503.68990 442.73525 473.97294 476.24634 548.04073 554.78556 602.05037 681.65823 690.29963 541.14320 483.89151 352.82067 227.51024 161.66402 50.54612 62.24403 152.50295 190.25734 192.94318 186.06608 167.36354 134.78868 100.80312 90.35111 74.95002 55.36917 59.76113 37.77054 27.84536 -12.86959 -32.61970 -49.11657 -47.25573 -60.08218 -64.09535 -47.84566 -59.52878 -60.40552 -69.17238 -73.00578 -89.01527 -90.39954 -81.14247 -69.89961 -57.05947 -61.63140 -68.63755 -78.49122 -82.54744 -89.62524 -90.96100 -85.94904 -82.46634 -89.81888 -93.18201 -95.53172 -94.98935 -99.43412 -111.79947 -105.28252 -109.87936 -103.33999 -107.66105 -110.62125 -124.98346 -122.28649 -122.04031 -116.13719 -114.50880 -122.88229 -123.20194 -126.28066 -135.18685 -130.53637 -143.00827 -154.10007 -155.70631 -161.23898 -166.65076 -165.05626 -174.43346 -194.09154 -215.32652 -224.50335 -291.30863 -326.23052 -377.33740 -410.44512 -382.23127 -473.34605 -626.44358 -768.30344 -1012.53339 -1120.81742 -1354.17857 -1556.54871 -1629.59160 -1669.57157 -1710.83829 -1745.87780 -1801.90649 -1816.66340 -1863.14226 -1901.42725 -1918.96904 -1959.45904 -1980.06926 -1992.96717 -1995.72419 -2000.52497 -1998.23269 -2005.41715 -2010.37077 -2013.11011 -2039.00096 -2041.96950 -2043.81550 -2053.70175 -2048.52382 -2043.03564 -2041.40467 -2039.56975 -2033.17967 -2044.46328 -2038.30409 -2037.07943 -2034.67201 -2049.77836 -2047.98205 -2063.81542 -2075.00160 -2080.47475 -2089.59540
676.61105 677.69045 710.42973 448.81818 439.45209 437.56193 439.26319 453.93258 517.34454 601.80763 675.98620 691.41942 628.60562 514.59653 346.08433 196.39388 111.70853 79.00038 100.61924 178.72284 199.41692 175.52506 167.95671 154.21639 104.31694 90.88815 95.34179 76.38133 82.20873 55.50248 32.34104 14.44755 -21.15213 -27.67781 -41.92617 -43.30316 -50.32647 -63.62651 -62.80587 -63.01840 -68.45847 -80.15699 -79.08267 -88.75686 -85.06693 -80.06669 -62.00406 -65.56985 -56.32148 -63.82068 -68.85896 -90.54952 -86.53112 -85.90248 -82.83595 -82.04351 -89.32417 -87.69952 -94.70375 -97.25914 -105.95636 -114.27202 -102.08103 -101.70586 -106.69913 -116.28468 -110.99751 -114.40827 -121.58294 -105.77819 -111.53297 -118.24770 -119.14560 -117.13553 -133.51377 -132.87272 -137.06312 -144.10971 -148.29952 -154.25736 -160.57461 -154.23264 -164.69549 -174.70004 -184.69216 -199.29453 -217.27359 -266.50826 -297.19779 -322.97167 -346.89378 -382.85314 -421.21522 -506.62608 -605.03104 -785.76987 -1099.81940 -1312.48178 -1545.01990 -1573.44916 -1656.04661 -1698.26281 -1713.58829 -1774.85170 -1829.08190 -1847.70575 -1875.89698 -1926.54194 -1940.30197 -1973.03143 -2002.08874 -1987.40499 -2004.47564 -2000.89403 -2005.20547 -2012.28196 -2021.19775 -2034.88487 -2038.95151 -2042.15373 -2040.51210 -2045.60181 -2045.83656 -2048.30831 -2040.84075 -2039.56431 -2033.49682 -2039.48938 -2035.46132 -2039.57354 -2045.97369 -2051.05342 -2052.07074 -2079.44649 -2078.97966 -2078.24910
692.33768 707.28053 595.84166 503.03915 445.18995 439.29657 442.00723 448.21163 468.56425 640.64385 698.00765 729.85414 654.39756 520.24325 389.57490 219.71719 152.27878 136.51859 206.69847 229.19408 195.13732 185.51685 141.26883 88.13960 77.62389 49.80229 81.42174 92.07198 75.62153 51.22838 19.18794 3.06900 -15.61601 -25.62721 -40.66503 -51.36049 -56.99347 -72.14203 -70.59583 -70.47842 -73.70528 -80.31766 -85.94677 -80.26203 -87.00318 -55.57026 -62.60706 -50.01657 -60.35485 -60.82208 -76.10583 -88.13339 -76.52901 -77.90608 -77.75097 -81.16674 -80.09815 -88.48270 -91.70899 -87.47942 -94.97876 -114.96137 -105.90015 -102.76595 -115.19734 -109.08110 -103.14086 -106.95226 -105.34630 -111.70927 -112.02450 -106.22494 -116.20557 -121.94057 -126.25831 -135.50361 -149.12283 -141.94798 -150.80180 -150.91201 -159.45832 -156.09995 -165.93070 -167.91238 -176.28848 -203.25918 -222.33805 -236.89653 -288.86117 -316.55365 -326.56804 -319.21510 -431.01314 -429.05628 -544.76131 -619.69960 -949.31861 -1043.43699 -1312.93533 -1550.61385 -1613.49926 -1656.29483 -1706.41909 -1733.17709 -1790.26646 -1840.88902 -1854.47275 -1890.69989 -1928.23192 -1957.93654 -1973.16309 -1997.06409 -1995.90073 -1999.84646 -2009.50253 -2009.30805 -2027.23419 -2031.32045 -2029.94086 -2037.32668 -2045.43467 -2048.79672 -2055.77089 -2047.95589 -2038.09768 -2038.72304 -2032.21648 -2030.16405 -2037.84992 -2038.25855 -2043.22089 -2051.70891 -2065.99949 -2078.83297 -2079.12437 -2086.54692
698.96251 700.92612 576.39311 511.73022 435.10951 419.11619 425.88608 432.24193 501.72467 631.87778 715.12171 699.27516 698.12324 539.22232 457.79757 318.16383 217.53469 229.67902 258.20768 209.36252 190.74064 156.55258 119.62655 58.72819 23.04502 17.97215 47.24979 67.56026 53.58456 27.40031 -7.15561 -14.38945 -7.00292 -31.22539 -31.03350 -59.09685 -64.25995 -78.72615 -67.63827 -65.57298 -65.11796 -66.11843 -69.21175 -65.00560 -62.07323 -49.77228 -55.30465 -58.75862 -59.76735 -60.92602 -77.71388 -71.32327 -81.53603 -84.74203 -81.99298 -83.22680 -84.75731 -97.70509 -90.12967 -92.79495 -95.68795 -114.29776 -111.42509 -103.69388 -104.32568 -107.28003 -101.45646 -104.97552 -105.08930 -107.10096 -104.63027 -113.16575 -114.17966 -117.33353 -121.69302 -123.13952 -136.22596 -138.60319 -142.38205 -151.50736 -152.81129 -152.11918 -167.10221 -166.83911 -182.01545 -196.76131 -222.32726 -231.23095 -255.07357 -274.26064 -270.62746 -284.64472 -309.96806 -388.34455 -441.64869 -555.71659 -727.62948 -946.78991 -1227.64897 -1423.36274 -1542.74855 -1577.81710 -1643.57638 -1694.11612 -1725.62833 -1768.54090 -1829.37643 -1841.04268 -1906.91309 -1924.99103 -1974.38134 -1988.85943 -1998.49115 -1998.56627 -2007.40636 -2010.69849 -2019.01502 -2018.04666 -2031.42880 -2041.97397 -2035.91893 -2041.88112 -2038.97993 -2047.61103 -2043.81765 -2036.61199 -2033.45848 -2039.43577 -2039.25790 -2033.57540 -2045.79432 -2057.83798 -2060.48951 -2079.10272 -2083.92479 -2082.99395
587.67118 585.74533 609.79816 443.93682 426.43534 423.68793 428.65043 449.05576 530.35241 588.22299 693.77354 719.31754 711.41723 655.45394 492.42128 481.77103 311.53587 272.59076 235.41978 166.99671 136.50081 92.19798 90.68332 -5.63284 2.99118 -6.92569 21.83693 71.20840 53.97873 3.84627 -16.69388 -18.43643 -21.95436 -29.56321 -43.89432 -53.46641 -76.09083 -65.49347 -60.24802 -50.10736 -53.06381 -62.21547 -58.12158 -55.76925 -59.36349 -55.23572 -54.60392 -47.97945 -51.66359 -56.44965 -64.53628 -78.11733 -77.26048 -78.19725 -86.93113 -79.80398 -93.08408 -92.92683 -97.46644 -92.64411 -92.22691 -102.43353 -109.05153 -96.42880 -104.33157 -101.04630 -104.11943 -109.09732 -107.55345 -95.77141 -111.91799 -114.84802 -112.20425 -114.80811 -126.90717 -124.44089 -127.81184 -130.99709 -138.17125 -141.50057 -144.37429 -148.48493 -150.97377 -162.91231 -184.43751 -200.42599 -216.66739 -215.18319 -215.15034 -216.06113 -256.73751 -261.14210 -315.25848 -392.86031 -426.68558 -550.66025 -700.14149 -911.31628 -1150.22803 -1280.81651 -1436.56040 -1552.55089 -1570.19248 -1607.88125 -1716.08424 -1741.81994 -1759.54846 -1838.38348 -1876.59524 -1916.56720 -1934.75009 -1980.79957 -1988.59014 -1997.02205 -1989.62815 -2000.58486 -2001.20969 -2020.93234 -2021.53986 -2018.67937 -2037.61523 -2025.32027 -2033.52105 -2044.15719 -2029.10938 -2035.23469 -2036.45445 -2034.95683 -2034.93535 -2048.85105 -2047.15663 -2044.93997 -2069.24161 -2086.95624 -2090.04220 -2087.74923
526.81515 528.40390 467.29163 435.65683 410.89176 424.31118 431.11073 491.27137 546.90596 583.56107 664.87424 764.28284 780.64265 710.00055 615.10136 501.35415 452.02250 383.44293 244.45474 160.85334 124.57988 82.39185 25.96546 16.40236 -7.51292 -17.84880 2.14674 20.23918 21.97148 9.79001 -25.70756 -29.59333 -37.87379 -57.91699 -54.20539 -61.56948 -59.92969 -50.90685 -37.66810 -45.23140 -52.48298 -59.38102 -61.69890 -57.29135 -48.62832 -47.95412 -46.24916 -51.94178 -49.55803 -60.39222 -63.75497 -72.25279 -78.23406 -82.44295 -90.78432 -90.39011 -92.20450 -93.81473 -96.48020 -99.14786 -97.83488 -98.31322 -98.95085 -112.99311 -99.11539 -102.77205 -99.26263 -100.10647 -99.55066 -102.54995 -107.87519 -114.40033 -114.77586 -113.52732 -119.28997 -117.54950 -130.73060 -131.60654 -135.52357 -138.60430 -145.22647 -143.67575 -151.25460 -167.37234 -177.72729 -198.46044 -198.91360 -187.73696 -191.78301 -202.96953 -214.99032 -254.12981 -288.28379 -378.30957 -441.92173 -538.43511 -694.11479 -866.16201 -950.70959 -1306.99719 -1353.04180 -1414.27456 -1482.31993 -1553.67055 -1637.03527 -1667.41205 -1705.53581 -1775.53874 -1856.55146 -1894.13894 -1927.51635 -1935.17792 -1973.96574 -1979.85765 -1989.94898 -1986.28895 -2001.61056 -2000.81516 -2014.45514 -2004.35128 -2017.09062 -2012.97929 -2023.68888 -2031.45318 -2035.97158 -2036.42115 -2030.13839 -2040.91874 -2050.99473 -2044.42776 -2046.49405 -2061.96041 -2066.71757 -2086.32725 -2089.31410 -2090.91507
488.57747 486.21104 433.91232 419.62829 415.82423 421.90648 455.51747 504.22866 534.15403 562.06036 624.36576 661.30786 764.93867 778.25123 664.88425 626.48639 480.06319 405.38487 268.08892 216.71519 200.04049 119.60726 94.85042 47.03340 27.35413 -18.01798 -18.34731 -5.75469 -12.55263 -36.17656 -42.59785 -48.61239 -57.88396 -59.62718 -66.54052 -54.98251 -50.04866 -35.85967 -31.27420 -40.53620 -50.25697 -49.70853 -51.37815 -54.29640 -41.54612 -43.23451 -55.85661 -50.53141 -64.45578 -71.82724 -72.96686 -78.82849 -79.72768 -87.72154 -86.73988 -87.65739 -85.92469 -89.37328 -99.46620 -91.11515 -91.68881 -87.27382 -99.22772 -97.08570 -101.20996 -96.18842 -100.31940 -96.75146 -101.48425 -97.65812 -99.61528 -110.18959 -107.37918 -107.23114 -120.32582 -121.32334 -132.02796 -125.74607 -131.52426 -134.12250 -144.85715 -149.45903 -153.17007 -159.31704 -174.43546 -173.40755 -184.50548 -171.16115 -189.17495 -191.52763 -183.24564 -215.21115 -264.68575 -285.88495 -383.04597 -513.36283 -635.40175 -839.70982 -954.72255 -1174.54402 -1322.33848 -1365.27038 -1418.13014 -1511.87764 -1584.17353 -1606.22898 -1657.46163 -1683.89581 -1797.08364 -1851.96270 -1897.42548 -1941.59271 -1943.36904 -1956.30227 -1962.39704 -1975.58459 -1980.03278 -1997.50974 -2011.76803 -2002.20159 -2016.63873 -2023.23383 -2032.16551 -2038.02712 -2038.21290 -2033.46317 -2035.78933 -2043.57980 -2034.56130 -2045.64886 -2053.46398 -2063.35994 -2064.71545 -2082.54448 -2098.65673 -2093.92021
437.17291 441.29600 451.86045 410.58943 404.60386 425.40444 460.36382 480.70314 508.43523 502.63714 527.85584 639.69101 672.29265 724.82814 692.63203 659.68143 554.02169 445.96793 324.42546 300.77045 193.72634 124.01022 81.45424 61.66994 13.84512 -10.78823 -28.70166 -29.08461 -29.04489 -35.88342 -56.36108 -55.50806 -58.57293 -63.63969 -61.20675 -52.68143 -44.47410 -42.60161 -32.07680 -46.05551 -38.14576 -42.27253 -41.21631 -38.58129 -46.61108 -48.15334 -66.01817 -66.11749 -60.45412 -67.74971 -77.71359 -78.44389 -83.29085 -73.16547 -79.17134 -76.61071 -79.15316 -82.46253 -101.92810 -93.01354 -98.51536 -89.90946 -93.92043 -93.89114 -90.98839 -92.22043 -92.97840 -90.47676 -100.29336 -100.46280 -104.97904 -97.69056 -102.57278 -107.76061 -119.89396 -114.90920 -126.09997 -126.55776 -125.67823 -131.67422 -143.83745 -141.03744 -142.06236 -154.32444 -154.96512 -165.42560 -164.87432 -174.52840 -178.53445 -179.12239 -185.02617 -186.98231 -208.34696 -268.36926 -343.88628 -419.74383 -608.75403 -671.57158 -890.91786 -1092.15591 -1248.28273 -1311.23671 -1390.42344 -1394.12481 -1424.59743 -1540.01137 -1578.14985 -1587.74101 -1699.14397 -1803.89647 -1815.50308 -1885.03779 -1922.23411 -1929.61663 -1948.79661 -1947.14580 -1959.41088 -1990.55745 -1989.58715 -2000.28909 -2017.89239 -2013.61663 -2028.80532 -2040.22170 -2032.86767 -2039.62269 -2037.89452 -2039.38088 -2048.32034 -2055.38080 -2060.63510 -2078.17569 -2081.79030 -2086.89985 -2107.31032 -2107.74053
412.46184 408.74020 415.15552 408.71135 400.82336 414.73656 426.44590 454.91470 476.62715 484.35943 528.12369 561.86372 618.97458 638.69441 571.18979 571.84585 612.79483 471.65101 440.93506 331.34312 199.14505 75.47319 66.55193 31.19637 17.78580 -12.92492 -37.13312 -46.22085 -37.61139 -38.31656 -39.89844 -38.54520 -61.98101 -62.80191 -46.13535 -32.20562 -24.55415 -28.55235 -25.52394 -30.78170 -27.00543 -29.52507 -41.68426 -45.56895 -51.34917 -58.86815 -63.40453 -65.33820 -68.68570 -73.95903 -67.96041 -71.54791 -71.65507 -67.42521 -66.85388 -73.53172 -72.85115 -69.37835 -81.87023 -83.95437 -91.71461 -88.63374 -93.29921 -85.05063 -91.44432 -88.18824 -93.47840 -97.17517 -101.55376 -96.92034 -98.47638 -100.53921 -108.46447 -106.47559 -109.70430 -115.40063 -121.70837 -131.13212 -128.89860 -138.28561 -138.63020 -139.17094 -140.50653 -148.72112 -157.16572 -154.53094 -165.50126 -167.46849 -172.83709 -178.83673 -191.79468 -194.33410 -235.12348 -280.20680 -338.91019 -361.19392 -515.52812 -701.15883 -771.48167 -902.00596 -1106.97923 -1263.54200 -1300.50014 -1323.48017 -1391.74814 -1438.95331 -1461.65897 -1575.30240 -1630.04537 -1663.18167 -1772.19592 -1838.09293 -1866.84004 -1908.24621 -1922.21990 -1925.45667 -1951.62254 -1984.23846 -1987.24305 -1998.20949 -2008.21195 -2020.00059 -2030.79966 -2028.67411 -2038.16596 -2043.71971 -2045.58835 -2053.56849 -2059.40954 -2064.20168 -2072.14826 -2067.45106 -2076.41012 -2102.81328 -2116.25248 -2110.17999
406.41482 408.18544 408.95411 408.59799 414.25669 397.95148 403.94396 415.67479 427.28817 443.90342 450.53953 487.50141 468.66320 459.87928 422.75499 515.54757 559.15612 519.46101 438.36016 316.20455 154.19849 112.36162 46.64212 5.19706 -18.91477 -15.09437 -41.80818 -29.43633 -22.63733 -16.76311 -26.50102 -50.35287 -59.49443 -48.63972 -37.72289 -17.02077 -21.18249 -24.42439 -19.32727 -28.47404 -35.29766 -34.43946 -38.24661 -54.46452 -54.61850 -60.83092 -58.95475 -73.69814 -71.14666 -73.05627 -74.47760 -72.12327 -69.99407 -58.82421 -62.85088 -64.95344 -73.27570 -74.95994 -80.39722 -80.75312 -85.88913 -90.23004 -83.51389 -87.71585 -86.57108 -83.01969 -91.39005 -92.06565 -98.39196 -102.71829 -97.72550 -93.81824 -100.05297 -99.83633 -111.06944 -112.93132 -124.10391 -126.76420 -131.73653 -127.83981 -137.07349 -128.94832 -132.65823 -140.84318 -150.62908 -156.77112 -165.35167 -168.44397 -171.02377 -171.48901 -191.32961 -224.83072 -254.10014 -284.67790 -345.97620 -383.68807 -637.41457 -693.43291 -756.63160 -920.94529 -1098.42100 -1175.84169 -1206.98522 -1283.68591 -1315.48617 -1345.99199 -1409.48481 -1526.65488 -1577.91232 -1639.99954 -1701.05766 -1763.19011 -1792.85848 -1874.47068 -1903.73109 -1915.43415 -1955.69839 -1973.43068 -1976.44358 -2001.09349 -2017.29441 -2019.27138 -2030.58018 -2033.08247 -2038.11198 -2041.47452 -2045.03424 -2060.26122 -2060.68051 -2068.34323 -2077.15608 -2086.24050 -2092.37561 -2104.02168 -2126.04170 -2126.75478
409.54423 410.11028 409.78104 405.15763 407.37075 392.70028 391.40889 405.78265 408.35283 417.55901 422.53112 375.35743 362.62641 346.27370 328.67268 405.41048 543.47408 477.46042 432.46968 329.76048 183.23309 90.97079 40.54996 29.89681 -12.75749 -21.44761 -18.64163 -26.57231 -13.96929 -25.81974 -24.91745 -42.48781 -49.96599 -38.98176 -21.51714 -11.40053 -19.79721 -19.94640 -35.41948 -31.68424 -43.89021 -45.64549 -50.19842 -37.21690 -52.25813 -56.07904 -56.10958 -55.42913 -62.19714 -64.78380 -64.92814 -56.32098 -57.63693 -56.98285 -60.68987 -62.18687 -58.55295 -72.66851 -82.15600 -87.61082 -79.14208 -82.09813 -70.92635 -80.52091 -78.10728 -87.67831 -87.23714 -92.83495 -91.62661 -98.50616 -94.64181 -100.68917 -103.38540 -97.97503 -112.35831 -112.63744 -114.70731 -119.85177 -123.93766 -126.52163 -127.62952 -125.40871 -130.32735 -141.96197 -146.04409 -152.06769 -152.83534 -166.37152 -163.68022 -178.50499 -216.71562 -233.65572 -272.94639 -282.77798 -281.87146 -381.12556 -564.41873 -654.37301 -845.39555 -977.65637 -1060.61192 -1139.61920 -1139.20004 -1174.34558 -1232.45679 -1330.62724 -1354.41320 -1440.43855 -1478.58342 -1562.02835 -1622.13314 -1674.41417 -1773.31821 -1827.22718 -1862.95139 -1922.24089 -1959.28271 -1970.15061 -1986.46332 -1996.75311 -2023.29044 -2033.74576 -2032.71369 -2042.54109 -2041.06506 -2053.96524 -2061.83982 -2060.65072 -2077.16966 -2074.84362 -2090.17125 -2104.79774 -2110.88187 -2114.99610 -2139.92471 -2137.33255
424.65560 433.72111 415.77562 405.81565 400.33686 389.33318 374.24982 399.50448 399.31747 407.00749 405.93804 347.66789 270.52543 264.14245 288.17277 387.42278 471.30186 478.84256 410.32789 308.72717 268.80217 132.14949 60.68251 44.90047 21.12018 -0.11329 -0.11989 -1.74084 -0.77980 -14.73108 -41.59866 -39.60427 -39.03030 -26.93491 -9.08082 -16.97797 -13.91449 -20.94317 -25.05936 -34.31863 -43.49220 -41.98093 -39.52806 -38.73897 -47.48460 -42.50317 -54.59738 -45.80075 -54.21204 -64.69068 -62.49922 -52.77181 -58.35787 -52.06382 -49.59441 -56.37847 -59.60554 -70.25638 -72.98844 -72.61511 -70.18811 -69.88167 -76.63714 -81.95262 -81.97665 -84.87731 -79.36371 -89.45687 -97.05042 -94.41172 -93.06827 -94.64006 -98.75694 -106.97706 -101.49964 -104.89805 -115.35296 -118.76610 -119.32931 -126.72774 -123.07647 -135.58583 -134.21543 -145.61808 -143.39147 -148.57180 -156.13176 -158.93278 -167.64140 -178.77910 -198.11966 -225.27957 -239.03725 -254.60631 -279.56394 -453.53982 -529.57982 -689.46791 -919.13988 -1042.24153 -1060.68969 -1118.78879 -1124.92869 -1140.84767 -1163.62250 -1211.18881 -1252.25450 -1309.44738 -1422.88202 -1476.96179 -1559.61575 -1636.63337 -1718.60439 -1793.59226 -1849.90145 -1925.60362 -1954.40828 -1972.33893 -1997.25113 -2009.56826 -2024.41788 -2028.27814 -2033.60810 -2043.42486 -2050.05155 -2053.99782 -2072.60526 -2071.02314 -2081.23976 -2084.01706 -2094.98566 -2101.86403 -2106.22359 -2129.95546 -2141.48379 -2138.91995
450.30783 453.28297 450.35425 410.39169 399.95734 395.92050 361.99757 355.44295 371.11362 392.27832 379.43704 334.80962 306.14446 210.85319 241.72225 325.81886 443.80723 457.69483 394.39294 342.41613 294.78277 89.44906 57.17858 36.34607 28.06905 14.77786 8.24000 -15.98950 -18.10691 -23.39163 -44.27197 -33.77447 -22.24641 -2.50047 7.19306 -4.26779 -15.26796 -15.69055 -30.78648 -30.89590 -39.83519 -38.88337 -41.88741 -36.35371 -40.93830 -36.73044 -45.02069 -47.73413 -68.32289 -60.25357 -67.46697 -56.90643 -58.52263 -63.80964 -59.54869 -59.00006 -68.85765 -74.63541 -71.45184 -74.46181 -74.96972 -72.23363 -81.32100 -79.63731 -92.13260 -83.34737 -87.59053 -91.25795 -95.13819 -90.34167 -95.30348 -88.89756 -94.20841 -97.34603 -103.92270 -105.91990 -101.08634 -118.94655 -117.12776 -124.52269 -130.26239 -134.08131 -140.36279 -145.75574 -143.46866 -151.42039 -152.57950 -157.09460 -155.35310 -172.32529 -183.01052 -202.81080 -207.34199 -245.94205 -302.00405 -451.67071 -587.96759 -759.45800 -947.67862 -1082.06916 -1114.87173 -1103.80162 -1112.66646 -1123.15386 -1156.30409 -1184.44150 -1251.51147 -1268.70726 -1281.12380 -1389.48691 -1451.03048 -1558.17078 -1607.96296 -1771.99011 -1807.73490 -1905.82199 -1937.78820 -1975.00645 -2010.09045 -2011.41297 -2032.77717 -2030.32485 -2043.90918 -2042.80753 -2056.98950 -2066.02788 -2064.13917 -2074.02535 -2082.28881 -2090.96541 -2102.93701 -2105.69839 -2112.66348 -2149.22616 -2144.75166 -2155.32773
468.25049 472.03906 452.15564 412.78210 396.19225 380.10600 340.51221 305.75144 314.72218 315.79354 325.84308 301.79127 235.55033 177.33253 201.93575 321.98386 363.47420 402.70086 406.72210 278.12546 211.16623 81.25385 67.10292 19.92947 17.78799 8.98469 0.35024 -11.28776 -32.25018 -36.81030 -14.35815 -14.75256 -3.94324 -6.08781 13.89326 6.44330 -13.30108 -16.84443 -29.45626 -33.94790 -30.10502 -28.90097 -30.08503 -39.85209 -43.99353 -44.90302 -57.24020 -52.59574 -56.67522 -65.39937 -71.72302 -69.02898 -62.83522 -55.98518 -49.73848 -57.72731 -62.49939 -73.53489 -74.95349 -63.22849 -67.39836 -74.62608 -70.01697 -80.97274 -78.21309 -78.50828 -86.22508 -84.67718 -89.27123 -97.95803 -94.92159 -89.12246 -91.81449 -96.72817 -94.89410 -107.02913 -107.44880 -107.48974 -115.46959 -116.27702 -135.77856 -141.50739 -130.37696 -132.62651 -134.95583 -138.37699 -140.71554 -156.68855 -150.43921 -156.88298 -173.57256 -179.18948 -198.17022 -213.12828 -338.66751 -479.47472 -531.08713 -922.42100 -999.83331 -1110.89368 -1107.55128 -1093.36489 -1093.14326 -1099.79525 -1127.69716 -1162.43943 -1184.40095 -1228.95327 -1251.11421 -1304.80690 -1408.32512 -1441.92058 -1614.46141 -1700.92957 -1811.09624 -1856.51783 -1916.69773 -1972.30744 -2007.10178 -2028.21566 -2030.40770 -2037.64016 -2044.81136 -2052.96350 -2050.60128 -2063.02144 -2063.10915 -2082.15572 -2092.64768 -2095.71281 -2098.45264 -2112.27226 -2132.92150 -2153.15618 -2153.41902 -2158.31872
486.58500 485.98882 446.42667 414.22479 369.91161 348.19993 316.01333 271.24987 240.78683 250.84474 258.00883 232.59141 201.20725 102.38271 173.13829 252.30781 329.13066 379.09651 370.29992 275.48552 152.36201 128.44884 32.25209 30.72027 5.69970 -9.05078 -13.98865 -31.03472 -34.29934 -20.80470 -15.87853 6.54588 10.42684 12.44989 15.69531 8.55913 -17.10029 -30.37363 -25.67031 -25.57908 -34.00196 -38.78359 -38.49740 -36.00074 -49.72283 -45.94340 -51.58633 -61.48100 -63.62368 -66.77829 -73.31329 -73.41278 -72.10404 -67.67861 -74.27808 -67.50770 -75.03408 -67.40379 -74.00042 -62.22588 -64.95106 -73.94759 -73.34952 -74.26638 -80.65235 -79.16113 -81.10966 -91.46042 -91.50745 -91.56320 -87.56025 -81.54052 -93.59155 -98.08296 -107.55867 -116.02712 -115.77842 -123.78861 -120.33724 -129.46438 -123.70531 -131.17165 -136.82426 -129.14515 -136.39174 -144.65759 -143.25716 -140.21304 -145.67070 -154.24350 -162.11862 -168.75433 -176.87624 -256.06739 -371.47831 -435.09172 -708.12756 -1007.86495 -1104.40653 -1124.38058 -1113.30039 -1108.01810 -1111.16662 -1099.53857 -1112.06005 -1128.06333 -1138.85450 -1181.94947 -1230.05797 -1272.40220 -1311.63728 -1462.50432 -1510.23318 -1690.47510 -1793.40468 -1824.56438 -1903.18388 -2011.40606 -2021.51405 -2031.93767 -2023.02160 -2033.30592 -2038.57011 -2041.76963 -2036.07148 -2063.61582 -2061.27283 -2072.53560 -2084.00824 -2090.85412 -2105.64581 -2111.75021 -2116.76985 -2142.28068 -2153.88143 -2157.34375
510.45935 517.31687 475.57759 410.39907 359.68192 269.75056 257.65501 221.90404 234.03727 218.90304 197.50410 200.06567 129.84236 104.60200 129.19279 277.56810 297.99795 357.62528 343.23622 298.40697 243.89893 122.28248 95.51574 45.69130 48.64799 8.07210 -8.55581 -19.46649 -12.67717 -10.02462 -8.82790 17.99631 24.61383 26.26959 14.86822 7.49292 -9.15545 -20.09052 -24.11080 -32.26867 -36.01073 -33.51273 -45.04177 -52.11375 -61.11980 -56.03881 -49.53750 -56.11510 -72.74252 -71.17642 -68.65330 -78.45692 -78.05480 -78.44838 -79.26097 -75.83446 -74.15267 -65.13278 -79.34266 -78.33336 -77.43343 -82.24238 -80.66940 -69.62671 -80.81798 -93.36754 -83.08295 -80.14183 -93.43089 -89.46285 -90.55960 -83.00754 -86.34295 -104.31187 -107.39415 -117.33552 -116.46870 -122.32890 -121.32227 -120.95112 -119.97200 -126.52455 -126.76538 -138.96357 -136.48653 -134.95055 -139.87095 -143.05016 -149.10075 -150.59106 -154.41131 -168.64125 -181.23878 -202.84171 -345.04577 -403.45680 -718.65883 -1089.47647 -1094.81285 -1117.83237 -1126.73219 -1116.39502 -1116.00888 -1102.54050 -1103.92861 -1104.90398 -1124.53975 -1140.10605 -1193.06999 -1205.80445 -1258.14984 -1417.30095 -1494.91934 -1698.53605 -1788.73888 -1834.88652 -1861.10833 -1973.62920 -1996.99835 -2011.23090 -2009.35244 -2021.03077 -2014.15716 -2029.79726 -2038.17892 -2044.17201 -2061.96974 -2074.45885 -2079.49142 -2081.97418 -2099.22746 -2111.82308 -2120.05332 -2139.10970 -2152.91192 -2147.86645
515.63515 514.51391 476.26996 364.61484 315.57066 267.35604 237.52780 159.61018 190.30938 149.07283 172.82021 134.29813 113.13760 62.80083 130.89820 258.55234 301.53441 362.31928 342.15016 294.24220 267.52529 208.03559 145.26297 130.93311 64.28034 43.70651 10.65683 -4.83960 -14.76931 -17.42212 -9.34894 17.67574 23.96732 22.42948 17.78606 3.58991 -11.48075 -15.49983 -12.88171 -27.96064 -42.85219 -49.93112 -54.97850 -61.07205 -66.75590 -58.87891 -60.09166 -74.50843 -67.21665 -69.81427 -66.88963 -72.60259 -86.12804 -78.99007 -81.32993 -79.18548 -79.69404 -77.79922 -80.82321 -85.94080 -91.44245 -80.76400 -79.32470 -87.99591 -76.03857 -71.31737 -74.45040 -84.37602 -92.14230 -100.99771 -87.10753 -92.50751 -99.55929 -112.21449 -117.52356 -110.54235 -116.01720 -119.46546 -123.75797 -124.45644 -123.48277 -129.34733 -127.84621 -131.74528 -137.02942 -137.78890 -142.02568 -137.81907 -145.43661 -152.62869 -149.53128 -169.01531 -160.41009 -258.58902 -377.83286 -513.01385 -879.19418 -1066.06715 -1081.54238 -1100.24718 -1120.48757 -1122.38093 -1116.69652 -1118.66534 -1104.34894 -1097.98474 -1102.92689 -1096.78328 -1135.94069 -1153.96606 -1174.79415 -1259.28792 -1515.00264 -1640.33974 -1701.43644 -1783.10258 -1820.83839 -1933.10303 -1976.92098 -1983.56683 -1983.46330 -1996.11192 -2010.55614 -2014.56342 -2024.04171 -2030.24560 -2042.59312 -2060.72975 -2071.63143 -2084.32804 -2088.16491 -2107.45802 -2120.46127 -2127.13779 -2151.25290 -2142.59050
528.33036 525.86852 433.09512 324.28465 285.51914 250.50056 194.77330 155.18640 113.32382 99.16035 70.58133 95.83849 80.68534 65.15692 93.53290 155.51495 229.75084 270.94571 306.54218 276.67661 263.73755 265.90614 235.05572 178.52919 112.18541 41.13366 13.91673 20.09856 1.14030 -3.88716 1.47698 5.31374 14.63857 30.67200 23.24745 7.55071 -8.14378 -12.55873 -26.53602 -39.00284 -51.33843 -58.45627 -67.60446 -63.52101 -59.08661 -62.81276 -65.81919 -76.85386 -64.32871 -63.16338 -62.81911 -70.30339 -66.70581 -81.31222 -88.64348 -80.25116 -71.51280 -71.88308 -78.54636 -90.67403 -103.81748 -96.43242 -95.28444 -86.30186 -85.25747 -83.99127 -88.96187 -91.60420 -100.93721 -108.73427 -100.92630 -97.92777 -102.99155 -113.00988 -115.03328 -109.99160 -107.32802 -106.24814 -111.49368 -103.12155 -119.13914 -119.79754 -131.59655 -132.04592 -134.84525 -135.28353 -141.63875 -142.87626 -148.44506 -147.70468 -157.09707 -157.69309 -161.13418 -265.61443 -335.01257 -536.67896 -645.54463 -942.47680 -1073.48084 -1096.22503 -1111.30891 -1122.90648 -1110.49228 -1111.78059 -1110.82039 -1100.53025 -1089.03404 -1090.41184 -1083.61125 -1109.64872 -1146.52990 -1250.22015 -1422.87101 -1569.90920 -1666.63054 -1730.18278 -1777.53697 -1877.27390 -1932.41839 -1935.36197 -1957.46462 -1943.57916 -1961.85197 -1968.30600 -1998.09353 -2003.32630 -2020.20392 -2050.48416 -2067.98569 -2063.30729 -2083.67412 -2098.05983 -2105.84297 -2121.42692 -2131.87128 -2135.51859
531.92402 545.46764 448.91919 307.30502 260.43960 218.33646 202.25829 147.94621 111.40117 93.18578 65.70155 40.09009 25.77053 21.07853 45.07928 78.45311 121.70942 221.94015 228.87297 260.12994 267.33844 264.39681 247.80767 189.29539 128.33390 71.16186 11.39363 11.21079 19.55263 21.71872 5.79753 6.32687 14.40786 28.20806 16.13255 6.19400 -24.82200 -19.13521 -37.54139 -44.00327 -58.54605 -56.15907 -63.58029 -65.39930 -45.41353 -46.46113 -57.23164 -67.15768 -59.59650 -59.13828 -50.97026 -64.24022 -70.85134 -69.80534 -72.63748 -75.81050 -67.18847 -78.22751 -79.37385 -88.42413 -97.22443 -99.55228 -102.79222 -105.06609 -97.07402 -97.82418 -89.79142 -98.89604 -105.04744 -124.64929 -118.01793 -111.34183 -106.66265 -114.50414 -115.07303 -110.23451 -109.82808 -101.25598 -115.43265 -107.20156 -127.21703 -117.52452 -121.73386 -137.99635 -128.67149 -128.02343 -136.35439 -136.80241 -138.28095 -150.51432 -154.32640 -161.22587 -154.00389 -251.76631 -281.92189 -295.43715 -471.52715 -817.82846 -1081.05012 -1038.05946 -1119.98652 -1127.61821 -1122.60883 -1115.73374 -1107.65794 -1109.54844 -1083.74247 -1075.25192 -1071.63610 -1097.17006 -1130.66370 -1206.35608 -1323.05452 -1484.88552 -1632.54075 -1665.64519 -1751.64804 -1808.63656 -1847.05208 -1865.30413 -1862.95459 -1849.73285 -1864.76962 -1883.76765 -1893.48907 -1943.96128 -2000.77389 -2022.73168 -2049.24042 -2058.41461 -2066.45044 -2077.64499 -2089.59866 -2109.97839 -2117.82651 -2123.64205
601.76757 600.63159 488.31266 304.90373 272.70005 225.96644 218.28194 189.77856 119.30259 92.11313 81.79973 42.27120 43.11515 46.83089 19.78837 40.43266 31.61848 105.59497 137.02603 220.83514 226.71615 268.63482 245.63718 202.34060 199.12651 136.54014 88.62199 42.40247 35.24142 33.67393 17.02810 21.97821 26.18921 18.07284 1.45970 -7.21640 -32.74500 -33.05206 -45.14967 -58.99538 -58.62774 -61.07741 -65.63823 -57.40860 -56.38171 -48.62359 -50.24050 -51.65304 -48.16219 -49.38787 -59.40413 -58.64004 -58.81500 -69.35369 -68.39358 -78.33166 -70.68993 -75.16622 -79.11682 -89.49854 -100.95699 -94.69528 -92.54404 -100.52549 -99.64446 -106.07200 -106.68928 -114.56316 -113.00261 -114.85831 -103.78040 -107.75706 -110.89441 -112.16953 -103.64507 -101.79138 -92.02056 -102.56411 -101.62722 -112.95364 -124.38108 -127.72698 -127.94816 -132.59920 -133.81089 -137.50799 -133.56989 -134.30538 -135.79693 -154.21642 -154.08673 -149.04464 -158.25816 -188.73320 -217.37201 -234.86556 -237.26136 -615.86672 -717.46573 -996.30463 -1050.36437 -1116.69506 -1121.26067 -1113.27404 -1105.50472 -1113.08874 -1080.15833 -1077.09088 -1071.10694 -1079.29305 -1076.50291 -1111.36813 -1292.81630 -1380.42937 -1483.37755 -1551.81184 -1675.24152 -1753.97591 -1781.13993 -1772.94162 -1780.52243 -1821.70987 -1839.39936 -1870.34068 -1875.80973 -1901.70227 -1938.35524 -1964.38763 -2015.87225 -2048.16689 -2051.25858 -2071.99705 -2084.45361 -2096.24501 -2102.20766 -2103.00168
588.79839 591.92420 498.31988 320.37989 301.60129 285.99406 294.68302 216.24254 222.17450 150.13477 144.59863 96.13340 54.86374 75.87017 57.09844 15.08014 15.46555 72.32244 130.99233 81.22774 186.66198 212.34152 257.74788 225.76440 216.68888 164.26648 96.59889 66.16195 74.66506 65.77762 35.29025 32.45718 17.81320 1.96228 -21.49276 -33.50899 -35.24486 -44.54054 -53.08436 -60.05262 -56.88111 -56.61808 -57.78942 -53.21869 -47.29526 -45.70463 -48.30878 -39.97984 -39.96627 -53.72669 -46.24435 -61.91476 -52.01635 -66.31003 -59.45663 -67.23432 -85.90731 -82.09649 -89.37784 -87.72536 -85.60934 -77.81056 -80.16034 -85.13972 -97.59604 -95.49409 -103.52266 -102.79921 -114.31586 -103.30869 -96.59625 -98.02729 -99.21986 -108.15485 -98.40410 -96.61899 -89.75022 -100.83595 -102.70632 -112.98609 -118.81440 -118.28927 -118.61397 -122.89095 -130.11571 -128.74373 -135.26035 -138.11303 -145.81693 -142.56793 -143.40287 -143.34941 -151.74763 -186.72657 -204.48294 -222.35820 -243.81399 -414.79204 -694.65513 -880.43337 -923.03906 -1094.50507 -1117.56729 -1108.48358 -1098.73983 -1100.52585 -1085.45637 -1075.46226 -1053.88771 -1044.89526 -1065.80975 -1135.66353 -1183.63598 -1300.89524 -1443.98064 -1481.28148 -1527.47555 -1559.39527 -1661.78446 -1752.83157 -1729.06241 -1755.52138 -1728.59280 -1784.84451 -1817.45981 -1875.78978 -1861.85429 -1913.61315 -2002.70639 -2013.20385 -2020.71789 -2043.73719 -2056.78160 -2076.02751 -2072.73721 -2068.68631
678.94788 677.92948 646.54592 342.26239 343.20037 364.42962 365.56910 314.54618 239.82337 206.65258 218.27966 126.24541 135.00243 160.48964 113.21199 47.96940 13.92145 63.35175 98.14731 76.66695 79.07523 151.75002 199.56687 220.35560 219.09298 181.17853 151.25544 108.07619 89.60216 85.46065 70.02217 28.29150 18.39973 -12.26844 -24.87039 -46.75090 -51.30106 -68.25583 -53.64292 -50.06781 -40.29277 -47.92591 -50.82950 -55.27527 -47.86861 -43.51805 -42.47886 -46.23505 -47.26915 -42.23576 -53.56135 -59.55077 -59.07864 -56.08780 -59.95313 -68.10797 -75.59171 -79.94104 -82.70181 -76.57471 -69.64895 -68.70175 -62.03858 -62.97986 -75.28282 -83.43862 -85.76171 -94.88756 -94.59939 -83.96722 -87.53450 -90.94907 -87.41757 -94.80313 -103.36480 -92.15722 -86.88402 -97.15900 -102.51695 -105.76400 -116.18383 -115.27664 -127.64073 -121.80868 -131.99438 -132.18294 -134.82470 -142.74688 -143.66243 -148.51724 -148.70526 -148.07543 -142.70013 -148.47783 -170.11643 -181.77475 -209.72768 -427.27418 -714.19528 -720.94097 -885.90970 -995.70290 -1077.25279 -1082.64223 -1091.24893 -1081.45972 -1087.69837 -1075.65849 -1064.24025 -1051.23118 -1059.02971 -1113.10922 -1177.09139 -1223.64186 -1372.71647 -1434.85799 -1451.26473 -1511.44340 -1546.46381 -1618.92800 -1616.22221 -1637.50108 -1664.50056 -1706.56982 -1717.17767 -1778.10752 -1819.34176 -1833.19995 -1936.08856 -1978.63382 -2001.91592 -2032.01820 -2014.04586 -2034.18659 -2042.00616 -2039.48812
648.70173 649.32543 525.78499 395.53369 359.35202 389.84385 456.15373 448.58132 342.51837 289.76677 238.24252 218.84502 167.72333 151.71743 109.04422 40.03939 1.41817 25.85796 39.98110 40.23429 40.37301 148.38509 156.38776 194.12443 191.38880 214.74959 176.37013 140.45238 142.49471 123.29858 79.72414 45.62966 6.82189 -11.25691 -25.92033 -54.57598 -63.88824 -45.59476 -43.41504 -36.39757 -36.89543 -23.68470 -40.16485 -34.98539 -40.63698 -45.11026 -40.53643 -41.60294 -41.28977 -45.60050 -52.17662 -42.12339 -59.11392 -54.88329 -55.71449 -73.02841 -75.23176 -75.17577 -74.81769 -61.74637 -55.56769 -62.99007 -65.34973 -75.67841 -75.37653 -74.55693 -80.58060 -73.11239 -82.34673 -86.90330 -80.87294 -82.17472 -90.17565 -98.15300 -94.81191 -98.75866 -97.01934 -101.74444 -100.61472 -99.29796 -112.93132 -120.59699 -116.89008 -122.21074 -128.41806 -131.34313 -132.55363 -147.12498 -137.16940 -142.48024 -147.45124 -136.13093 -154.21203 -156.47129 -158.01169 -152.87193 -194.45494 -339.30361 -570.73661 -731.16204 -813.49091 -900.83662 -1038.11468 -1068.62936 -1057.88641 -1068.95312 -1064.48765 -1081.92885 -1063.86551 -1050.60269 -1087.12772 -1126.58479 -1182.09777 -1196.76321 -1268.03415 -1381.42803 -1380.80282 -1392.86007 -1403.00651 -1398.23548 -1469.87339 -1505.20337 -1545.55400 -1605.82128 -1651.48985 -1711.68089 -1737.96377 -1806.95261 -1847.25225 -1907.45093 -1933.52420 -1943.52175 -1974.96454 -2003.86540 -1997.56272 -1998.21431
678.94228 677.21848 522.37223 374.28059 419.58292 485.57553 519.30197 528.58170 426.57344 380.66718 285.85944 266.92787 223.78546 156.23289 132.57895 78.02645 29.92204 4.76154 0.71332 -4.80004 2.57111 73.03846 131.44423 162.70163 192.36075 194.48274 198.52066 195.78507 188.13499 165.68399 110.30889 28.80784 12.46794 1.23385 -24.88043 -52.22581 -59.47160 -43.40458 -29.10731 -20.30838 -18.86919 -24.46709 -29.89539 -33.46980 -41.25150 -34.34456 -31.83481 -41.32667 -47.77933 -38.99751 -33.91784 -47.88792 -43.29894 -52.89779 -58.26042 -61.64416 -67.54316 -74.54316 -67.03362 -60.07250 -63.47934 -59.85046 -63.67999 -69.79562 -65.53135 -76.15291 -73.89172 -74.24324 -80.85034 -86.83308 -89.07155 -79.82276 -90.71626 -87.36314 -86.25875 -95.67287 -103.16229 -95.93586 -94.99709 -108.77932 -113.92705 -117.67403 -125.05759 -131.35251 -134.75015 -128.07849 -124.84581 -131.81646 -143.88393 -140.53220 -142.40760 -143.60822 -142.52553 -150.30062 -154.28884 -149.02580 -176.27591 -194.81259 -424.80115 -557.14088 -756.41982 -851.29885 -942.53394 -1016.90592 -1032.41949 -1043.68303 -1076.65570 -1065.40118 -1056.56008 -1071.48307 -1064.27474 -1118.50001 -1140.17749 -1209.34742 -1260.53403 -1310.84986 -1309.54493 -1346.26551 -1325.76609 -1365.76471 -1392.46095 -1420.74333 -1492.18874 -1501.75548 -1523.34735 -1593.08911 -1694.47485 -1735.50782 -1759.09539 -1776.64280 -1836.76679 -1897.90375 -1904.49439 -1948.35146 -1952.85058 -1950.06520
825.61853 830.46058 638.33418 433.73151 514.91038 567.35989 552.45459 580.66615 522.24456 395.07578 331.77798 312.14244 261.08660 188.07506 131.57889 133.98999 102.55156 77.85730 18.53558 12.71997 -12.76652 30.79404 57.92484 135.59669 148.41484 181.70624 175.59773 196.09254 201.04059 162.22882 128.41224 66.69261 24.49845 -0.65879 -23.28847 -42.31541 -55.23320 -43.63987 -35.21083 -20.70421 -12.02368 -8.61735 -18.50266 -26.03739 -31.06734 -34.80526 -37.03220 -38.09786 -34.95123 -39.19898 -45.29290 -48.14415 -53.29331 -61.10007 -58.02756 -61.89554 -60.07335 -67.28309 -68.78785 -56.63403 -54.93353 -56.18870 -60.14261 -68.96719 -67.83060 -81.87935 -83.12452 -82.07095 -85.83053 -78.29065 -89.46634 -86.40100 -94.20792 -92.51144 -89.68908 -94.52383 -107.13985 -100.25229 -92.94881 -110.28355 -120.20318 -124.59321 -123.63499 -113.56159 -113.55052 -124.05578 -128.25369 -135.94001 -134.26766 -132.01261 -142.98602 -131.42101 -134.76549 -150.59380 -150.93692 -149.55396 -173.78236 -179.98193 -268.10195 -464.79416 -584.76026 -729.37137 -880.91593 -929.28471 -988.67506 -1001.88324 -1045.50705 -1042.35155 -1047.85293 -1059.46047 -1067.45480 -1098.93651 -1150.61123 -1208.98158 -1256.20978 -1259.47718 -1301.37343 -1283.10690 -1291.98482 -1304.59604 -1350.64654 -1357.38283 -1394.19391 -1405.34378 -1464.00056 -1476.73687 -1521.33096 -1558.24925 -1612.42694 -1725.06836 -1793.40214 -1830.59959 -1872.86657 -1852.22331 -1900.37555 -1890.89495
808.15121 815.35439 645.93665 524.03338 509.80693 620.07439 619.02112 640.65687 564.68936 453.77976 375.12682 365.00065 301.69998 189.08960 133.33712 132.22853 118.79392 84.40016 66.35029 25.05960 0.81877 10.03895 14.52234 73.10036 99.35682 136.34972 149.19337 170.43442 176.42708 150.19454 126.33578 85.33439 3.37743 -14.30403 -35.67358 -43.06101 -53.40855 -53.88037 -39.33544 -11.85284 0.89203 -6.35495 -14.24810 -27.28906 -25.74942 -31.93644 -38.54529 -38.22555 -28.77476 -36.47154 -38.12850 -48.50300 -53.43628 -61.95327 -66.65692 -57.64539 -63.20556 -70.20669 -65.53619 -58.45379 -58.38562 -63.67762 -59.00519 -61.94941 -67.62418 -66.85140 -72.14213 -82.00301 -93.01583 -92.19396 -92.21255 -92.92496 -105.17220 -92.50214 -96.59461 -107.80582 -106.69798 -109.06210 -113.10178 -121.37443 -115.96278 -114.69426 -113.57906 -114.90247 -120.79915 -120.42680 -127.72513 -126.96820 -129.90090 -135.56057 -139.47673 -138.91265 -130.93080 -146.04125 -144.99441 -155.64601 -160.28610 -176.20913 -232.61517 -306.75379 -466.26834 -552.76755 -721.82048 -890.98560 -982.55088 -985.60137 -1011.16149 -1010.04083 -1040.39575 -1051.49764 -1063.87433 -1110.20164 -1145.50824 -1205.45596 -1223.72818 -1238.07912 -1249.56570 -1223.61077 -1206.21148 -1241.73991 -1249.61394 -1263.46314 -1270.34752 -1321.64259 -1327.35511 -1368.53157 -1446.27219 -1475.22378 -1581.49397 -1604.18356 -1684.52417 -1796.26406 -1796.90499 -1850.42876 -1827.93404 -1838.60297
817.51484 811.80586 910.93806 526.84471 600.37113 663.45496 738.57872 755.56997 685.32547 476.59081 382.85052 332.90311 281.80073 194.13408 113.51416 91.07450 106.41596 114.22526 100.95515 56.75353 43.95847 7.80059 4.30331 22.87146 70.46078 79.62437 97.85260 140.83522 124.94845 117.35385 79.74965 85.94909 -6.38240 -40.03717 -40.50194 -55.40496 -58.61118 -48.79329 -18.60807 -3.23455 -0.31308 1.86146 -10.08496 -23.09941 -18.79960 -30.74119 -39.35261 -33.42031 -33.84016 -38.29950 -46.86027 -51.03499 -55.83496 -56.86573 -54.84473 -58.82798 -58.90768 -58.67897 -65.36125 -58.58508 -62.41734 -55.53128 -64.94312 -70.48109 -75.66943 -74.19575 -78.72583 -83.99649 -86.75518 -90.95850 -94.45834 -97.69041 -104.10599 -107.29187 -100.70793 -106.69578 -108.76649 -119.05549 -110.33508 -118.53763 -112.79889 -109.02383 -107.58225 -111.83258 -125.04116 -117.47766 -115.40161 -130.55877 -128.31359 -129.49677 -137.12763 -141.03705 -141.82625 -144.50356 -150.04565 -144.48236 -157.36887 -179.70874 -171.22890 -234.12418 -343.83075 -451.04879 -500.49209 -650.58382 -767.15731 -925.58094 -932.35458 -966.18348 -1030.23044 -1043.77239 -1066.03116 -1074.42619 -1134.05916 -1186.54082 -1220.84102 -1222.62661 -1203.08014 -1156.69269 -1154.41322 -1162.04124 -1171.60547 -1159.89108 -1151.43612 -1218.01954 -1205.86483 -1250.31727 -1308.28419 -1368.39232 -1480.01924 -1527.22650 -1577.33203 -1643.84439 -1708.64767 -1743.80672 -1757.01661 -1761.56254
1153.88991 1160.47387 894.71212 714.00370 678.40029 773.39678 833.86818 814.88947 756.31395 610.40965 428.14217 381.22955 227.97547 141.30037 106.07944 67.71744 70.55930 90.40941 97.40533 78.06625 27.39170 6.73079 -7.23879 3.71820 15.45458 63.43253 88.84570 106.30981 55.74740 71.80050 41.62810 -7.47842 -29.01249 -49.70430 -49.22255 -43.62715 -44.33844 -26.11196 0.20711 6.43198 7.73844 -3.17600 -10.13405 -21.62710 -22.47022 -16.46708 -26.68669 -35.61231 -30.24175 -45.60940 -55.63694 -55.22226 -56.77132 -61.74738 -49.11013 -56.61869 -52.67874 -56.24610 -56.80313 -57.22090 -60.35984 -64.83054 -64.79395 -76.60803 -70.52701 -78.66480 -82.69228 -82.92443 -87.07309 -90.34812 -96.14463 -103.65391 -101.43479 -105.01753 -108.74843 -116.58803 -115.22696 -110.28128 -113.39044 -102.90390 -109.11200 -107.03405 -110.24922 -109.05739 -116.25691 -112.07226 -129.15487 -122.46185 -127.51616 -128.64374 -133.33158 -138.50553 -137.51749 -138.97880 -146.17141 -144.32334 -142.91222 -154.30477 -168.66800 -169.79139 -178.81226 -285.50184 -375.89297 -357.89164 -590.98408 -712.80966 -856.67375 -914.36330 -997.44404 -1034.06066 -1064.22405 -1082.39193 -1119.61549 -1173.57116 -1198.85892 -1203.00142 -1175.78537 -1150.03463 -1115.67502 -1083.44693 -1092.13157 -1113.15348 -1071.99418 -1094.67149 -1153.77612 -1164.82339 -1173.70212 -1289.87644 -1341.29707 -1403.36458 -1498.18594 -1527.12453 -1608.35554 -1701.34793 -1681.83307 -1680.15617
1323.73695 1320.03150 1156.65317 850.96794 816.13164 852.25093 902.25056 892.03956 816.82097 630.37353 526.49965 381.55361 203.39762 145.51136 95.29051 22.37511 36.07069 40.41966 44.76620 13.58928 19.66441 -2.72171 -12.26290 -15.79010 9.84933 20.82716 38.24247 45.00031 50.90614 -1.24775 -7.96545 -26.62701 -42.03041 -36.49426 -43.25980 -36.08037 -22.49901 -6.79701 10.83326 6.48251 0.26606 6.98603 -7.41510 -7.94354 -9.79706 -9.62159 -22.96134 -35.42780 -37.57973 -50.42406 -56.73801 -56.53906 -58.86025 -41.44011 -36.84771 -50.12077 -48.02333 -46.30287 -54.71447 -57.60682 -70.73264 -70.75662 -61.98493 -62.47650 -77.53609 -80.52112 -81.51743 -87.10934 -83.69520 -82.88730 -93.39791 -103.65525 -103.31858 -97.65839 -109.67281 -111.13989 -115.51234 -108.75058 -115.49928 -103.11177 -107.69365 -106.42120 -95.65167 -111.26701 -108.64274 -113.24191 -118.53750 -128.37935 -129.41309 -131.53376 -132.85719 -134.93256 -129.98284 -133.22337 -145.88188 -141.37049 -157.39239 -153.33110 -156.15444 -154.94090 -166.43218 -172.53111 -230.72631 -276.28636 -416.56647 -546.53626 -832.95172 -888.01254 -975.86946 -1023.52029 -1064.03201 -1092.46208 -1119.53166 -1141.49993 -1189.92526 -1164.07003 -1155.34884 -1117.25751 -1055.82113 -1035.36481 -1028.28982 -1012.62997 -1038.22013 -1042.07729 -1047.89401 -1023.25069 -1019.75353 -1111.26164 -1199.90108 -1243.09352 -1349.27096 -1461.21516 -1468.17061 -1588.32858 -1592.59292 -1590.45750
1556.69014 1550.44701 1310.71629 949.54253 934.20792 972.81170 949.22269 895.14621 770.43273 731.79152 540.52169 375.17533 226.40586 130.91855 109.32033 70.05446 29.07933 18.09433 -1.27403 -5.62655 -1.36881 -24.05621 -28.21996 -16.84187 1.30319 6.47675 7.20727 29.18379 9.25265 -10.44214 -23.00619 -39.04077 -37.14718 -34.01449 -26.07438 -20.20304 -6.63304 10.69791 35.67009 45.99339 13.43486 4.14743 -6.88419 -7.81020 -17.19418 -4.51761 -24.45559 -34.62581 -40.15220 -43.99053 -58.05062 -62.24914 -53.62643 -39.31028 -41.93913 -42.59874 -40.16560 -45.18258 -60.60458 -58.06894 -69.81859 -68.71461 -75.10411 -73.63924 -79.92004 -73.82855 -75.20352 -80.30666 -85.69626 -95.65262 -91.58701 -98.47601 -106.09293 -108.12512 -100.03235 -112.17256 -106.39007 -110.13357 -105.57435 -102.04795 -105.95767 -104.18916 -113.03337 -111.81020 -117.24136 -115.42803 -116.40852 -121.66335 -121.33088 -129.19840 -134.41624 -132.69740 -135.34745 -129.11262 -135.48763 -150.00603 -149.39971 -149.27833 -153.75082 -146.30521 -167.00269 -160.51048 -202.43899 -219.11693 -336.11906 -483.28710 -769.00944 -825.17878 -956.02787 -975.01365 -1027.39956 -1066.86248 -1116.05584 -1117.92789 -1139.21821 -1131.23004 -1107.59727 -1058.23410 -1039.72061 -1016.52463 -1018.99854 -993.60544 -967.94523 -963.99896 -974.91253 -993.77936 -1000.28237 -1007.33908 -1033.05869 -1149.85769 -1277.28663 -1339.01301 -1405.09264 -1430.30266 -1510.52943 -1518.63139
1508.39979 1508.19199 1243.15542 1128.43924 1045.18914 1024.54970 971.46121 891.71292 845.02746 627.77367 505.12845 331.62089 287.15724 168.54511 102.75842 83.31213 49.68358 26.17874 -9.68013 -13.11686 -27.69033 -19.04818 -29.65026 -35.30423 -25.60176 -18.10505 3.17370 -3.04072 -7.22423 -30.71735 -28.30182 -32.19492 -23.24282 -7.65207 -23.51447 41.56972 40.66083 59.09754 63.18353 59.51326 42.10638 18.30900 5.64919 -4.26911 -5.59376 -16.83955 -27.24838 -28.21243 -35.34213 -43.55009 -51.75942 -64.91123 -55.66378 -40.97089 -31.95760 -33.54333 -41.97048 -49.09075 -57.55229 -66.58619 -67.95758 -73.19986 -72.71967 -69.56165 -76.23498 -79.22842 -84.24551 -83.99525 -82.61518 -90.94054 -87.50967 -99.47983 -92.46528 -85.84002 -98.64830 -100.17648 -108.91825 -100.97078 -93.31739 -102.07152 -97.19127 -109.14879 -109.17440 -109.92060 -112.46544 -116.22265 -113.65739 -117.97337 -126.87560 -126.25618 -127.68582 -132.38748 -127.59659 -136.57592 -137.57007 -140.33061 -147.35495 -142.30817 -146.50661 -147.35067 -159.09853 -165.34109 -164.05917 -178.25545 -192.59135 -320.53972 -609.29553 -751.18217 -835.70843 -958.19266 -950.17500 -1051.76018 -1060.40911 -1068.75102 -1099.53523 -1058.53131 -1070.53709 -1050.82433 -1022.40502 -989.74168 -983.38442 -979.49599 -927.17698 -938.99689 -891.13322 -904.68642 -910.78256 -929.09320 -1000.56153 -1028.75661 -1130.60280 -1317.92257 -1331.08318 -1428.75011 -1432.79763 -1420.31452
1260.99926 1266.92380 1323.88660 965.51083 993.55304 899.53251 790.08917 777.08482 765.37432 714.04479 506.75862 465.96625 360.32952 302.82213 209.11682 166.39015 114.86150 45.57895 29.09241 -0.58952 -0.01059 -10.28456 -18.07926 -19.19261 -41.97664 -26.90403 -13.51204 -20.50954 -31.63900 -29.59284 -40.01897 -35.24078 2.18382 29.47114 59.54201 65.45584 58.07170 85.03677 103.79300 97.23370 52.98546 10.51056 19.79055 -2.93929 -11.37220 -21.10058 -30.50875 -43.54318 -43.76278 -44.58116 -48.93782 -48.07940 -45.88101 -31.42448 -22.08170 -35.52499 -33.96856 -48.51219 -49.27708 -60.82906 -53.74547 -72.46783 -66.26241 -72.59226 -72.29535 -74.41202 -83.18425 -88.70206 -83.67488 -88.84755 -92.22792 -95.94091 -91.81797 -96.12414 -90.65252 -100.03795 -110.15575 -99.63554 -91.46887 -95.63007 -102.79833 -102.02986 -102.36314 -103.00636 -109.09586 -112.14938 -115.46891 -116.97557 -121.98157 -129.28893 -129.45773 -120.51584 -130.40644 -130.75726 -130.77565 -140.50047 -142.10546 -138.06788 -141.34148 -138.27488 -151.28884 -146.62173 -161.73675 -161.92971 -179.54076 -317.99966 -406.37365 -470.67543 -790.12443 -839.33602 -884.94073 -1006.65572 -1031.01827 -1034.81663 -1041.16567 -1048.29297 -1044.66066 -1024.16745 -1011.70252 -977.10516 -940.29677 -899.78084 -873.76281 -871.76997 -849.77167 -838.60915 -839.27510 -850.76532 -920.98121 -949.99319 -1022.12345 -1143.70003 -1233.08010 -1310.99143 -1359.03168 -1359.25888
1221.64887 1229.12857 1043.14408 874.16499 819.23775 767.99538 590.77565 687.81035 769.05513 804.86528 692.58850 516.51076 497.18144 379.19950 321.83399 295.78177 256.59320 151.27384 73.29776 30.69584 -0.56445 6.42855 1.80392 -34.26926 -25.51678 -38.04278 -32.92390 -24.34411 -36.16881 -38.28169 -37.78412 -17.45882 11.20088 54.32574 81.47173 115.72534 101.09903 100.40532 104.12924 91.69068 35.82156 5.49680 -0.07841 -5.96755 -22.17902 -34.49284 -37.78690 -43.89846 -38.43217 -29.46168 -32.29627 -42.40423 -30.94578 -34.02654 -26.86817 -30.78413 -46.64433 -48.72348 -53.72868 -50.27935 -55.06365 -62.30094 -72.79200 -69.43218 -64.85232 -78.08971 -73.13706 -80.05958 -81.23890 -85.76037 -91.93395 -82.69161 -91.10203 -94.77313 -101.08266 -110.95753 -108.10411 -108.29498 -99.25903 -100.66635 -104.91179 -102.61997 -105.55876 -101.29767 -102.14433 -110.17308 -117.81819 -119.89906 -115.33221 -128.62571 -124.26866 -133.10282 -124.50516 -138.03213 -144.24757 -139.26133 -139.17511 -137.58028 -139.47510 -139.98863 -144.20852 -144.00826 -151.29686 -164.18836 -175.98390 -216.62312 -335.68818 -375.75671 -677.32392 -800.92547 -842.55329 -877.38505 -975.65795 -1018.21510 -1025.49682 -1029.20253 -1021.56211 -1013.93944 -1006.09180 -939.53366 -907.80274 -887.92930 -852.09218 -810.56161 -799.88965 -800.19298 -807.91541 -825.20156 -866.51318 -873.56988 -902.71551 -1029.34962 -1155.30690 -1259.23492 -1298.73134 -1305.37534
1193.34272 1195.02501 984.31469 792.44272 636.97339 543.74065 582.03931 619.76410 717.30795 742.58641 714.17369 598.67965 519.50688 415.09765 342.74967 349.18864 323.98525 272.43984 171.01546 81.76253 41.43450 54.45876 41.41554 17.60814 -26.52836 -28.27595 -23.50578 -41.84278 -30.88498 -40.77670 -33.07905 -7.51969 19.03262 53.52612 99.32737 123.15391 138.67007 128.96227 109.83230 55.59919 13.27999 -2.98361 7.48440 -10.13463 -26.04855 -30.79349 -38.96343 -32.78449 -31.80838 -24.90593 -33.61732 -37.09675 -35.41949 -37.04868 -35.41471 -49.51516 -43.32594 -46.91717 -56.35976 -49.11432 -56.46939 -57.37825 -65.05233 -58.03323 -69.88762 -70.50898 -69.67126 -77.15047 -74.63259 -80.64168 -92.22311 -91.37001 -92.37765 -96.83027 -98.79711 -106.33181 -102.17731 -97.18735 -93.92773 -96.28465 -104.69573 -105.70981 -103.86613 -110.77370 -108.67432 -114.98623 -121.70992 -120.38648 -122.04382 -116.95104 -122.25724 -129.20209 -132.31790 -130.99511 -124.40248 -127.51897 -133.32588 -140.64584 -134.21517 -141.01645 -145.00174 -140.68680 -150.80596 -149.72719 -164.95156 -235.32640 -256.34441 -355.44952 -494.37652 -680.84213 -718.48596 -852.44330 -931.98372 -1003.94511 -1008.98773 -1010.89634 -1014.09389 -996.33146 -968.28249 -918.24035 -891.18549 -872.13822 -820.87323 -790.60284 -755.74071 -744.31545 -754.51610 -758.34142 -805.73470 -833.30102 -892.64118 -983.35813 -1049.72771 -1253.31778 -1254.18288 -1240.53311
994.18255 999.50681 1031.53236 639.51932 607.84456 523.04849 489.32305 514.35766 621.94166 666.99578 594.52939 602.90851 581.90075 474.51243 444.91364 384.56195 392.34991 338.32012 212.56212 173.41909 126.70899 111.50228 52.77071 15.81763 -11.03980 -4.17685 -25.31053 -26.50108 -32.89753 -28.32941 -25.88903 -2.24297 39.65708 41.76347 96.37535 127.65621 155.06882 128.67886 99.17735 42.50268 -2.53247 -8.47468 -15.76690 -23.58207 -39.60719 -34.82671 -24.02787 -21.41012 -10.58844 -13.31236 -26.77502 -30.37123 -38.73338 -38.35269 -49.18778 -52.52059 -61.78997 -58.32151 -62.27032 -65.60945 -60.11785 -57.37896 -60.20871 -62.34715 -68.15747 -66.98338 -79.33113 -79.57862 -76.60821 -87.31431 -89.40876 -91.15715 -97.36480 -102.09332 -109.23185 -93.57706 -94.39046 -93.49806 -101.92219 -100.72111 -104.36393 -103.28119 -109.59380 -113.29337 -108.07938 -116.53122 -118.57343 -116.12620 -124.93384 -121.12133 -118.68970 -128.80719 -129.02075 -133.15283 -128.68342 -129.96164 -131.93391 -131.04895 -135.44939 -138.97886 -147.14955 -152.15000 -146.30587 -149.88722 -153.57219 -177.87986 -219.32930 -287.61950 -432.23647 -547.21254 -658.36821 -845.24759 -867.32765 -943.19357 -990.64061 -1001.88993 -1001.08286 -983.84157 -945.28214 -894.13975 -856.86458 -847.05457 -808.25476 -763.71901 -743.04405 -727.67421 -726.21872 -707.77786 -751.54646 -792.43049 -867.17219 -955.75825 -1049.74895 -1140.64589 -1208.59257 -1207.30101
916.22890 911.40164 740.69668 640.98044 550.97097 475.61513 445.52654 494.67206 503.94945 487.85583 490.94526 560.75554 581.33343 515.11708 463.77533 400.00491 391.52063 367.67994 221.25838 151.65224 124.49400 51.30102 28.84631 -20.22831 7.35687 13.99824 -5.41601 3.02338 -4.85700 -10.25466 -12.22949 -6.18274 26.46805 53.83647 95.97412 126.04490 147.56408 110.18973 70.94347 2.63022 -2.78137 -22.88526 -29.77686 -26.63257 -30.11787 -21.91099 0.88690 5.80070 6.74212 -0.79585 -14.94628 -27.69789 -42.35253 -40.06721 -46.77080 -61.46498 -52.88891 -55.21473 -52.75450 -63.66703 -70.56238 -65.24982 -67.37549 -69.48738 -75.24533 -88.33587 -82.55812 -74.92088 -77.84379 -86.72006 -89.27521 -97.66231 -107.48311 -93.62484 -95.64779 -86.17394 -90.95611 -90.08764 -95.59405 -100.49654 -96.58260 -102.75242 -109.27281 -114.62477 -118.50163 -120.98074 -121.40616 -121.27578 -124.33726 -112.25116 -122.17769 -121.44458 -138.91092 -131.10267 -132.27191 -125.58708 -128.53063 -138.87511 -133.20026 -137.30205 -145.29040 -143.67080 -150.11343 -149.67504 -166.11122 -165.81758 -169.00445 -203.46272 -241.30555 -369.28833 -618.16714 -707.22522 -852.63672 -915.84497 -990.89769 -994.76996 -991.63880 -978.16968 -928.94179 -882.65090 -831.20471 -816.48392 -755.96540 -708.24953 -718.57232 -680.98924 -692.60530 -714.55782 -743.83225 -790.92714 -806.95873 -927.85642 -987.34243 -1118.02919 -1170.81281 -1164.46096
868.78932 868.33945 738.29630 585.79865 486.00767 401.99897 440.84136 484.08532 480.20597 437.54708 394.40417 488.83966 521.75460 571.05258 553.11061 467.93396 388.60412 327.11165 190.50755 66.17628 53.87333 17.77207 5.14784 3.79896 42.74525 65.32914 24.69322 -5.62818 10.48845 20.70048 4.94945 8.12330 20.21232 47.99255 90.90542 139.48500 137.38304 117.38424 66.82288 -2.76504 -19.63860 -30.86534 -32.21942 -28.00630 -23.31546 -6.99442 6.40420 28.99220 34.89262 18.36832 3.15255 -18.39001 -33.38446 -26.78836 -44.91241 -50.95968 -41.95323 -44.98266 -51.98910 -62.48353 -58.91660 -66.98616 -69.94479 -73.97636 -77.77461 -77.92833 -72.98168 -89.97786 -95.31153 -92.99166 -93.26510 -95.83322 -90.37375 -96.98199 -94.03171 -92.52999 -91.95356 -92.12205 -96.92508 -103.98721 -100.65742 -100.12740 -109.28978 -112.65431 -114.01772 -122.11207 -121.46326 -124.34314 -124.29106 -125.48269 -131.22389 -132.16904 -125.98996 -131.10520 -131.55144 -128.39145 -126.22653 -135.42558 -136.82752 -141.78781 -130.58062 -141.91657 -144.77860 -143.46849 -152.31823 -157.73201 -165.72252 -183.94600 -231.59362 -255.26136 -445.71918 -726.61121 -841.97798 -885.05101 -974.70601 -985.63242 -973.29472 -953.60208 -889.65419 -841.34870 -798.97921 -788.36206 -716.51013 -705.46224 -673.50522 -668.03462 -671.15467 -680.77689 -715.74508 -751.82955 -791.43968 -870.03837 -900.92965 -1118.17843 -1118.85013 -1118.85354
842.54581 840.89632 721.82458 594.48915 474.95998 376.42945 373.10525 393.41606 397.96154 376.41232 380.89587 401.17596 536.41059 559.85750 561.39084 461.82707 427.46613 354.53479 204.99538 34.69994 25.76699 30.09370 41.93234 33.10564 39.24783 50.82718 34.42039 20.27804 46.97531 57.51009 58.41010 48.33250 27.50362 80.08919 114.89146 138.96011 137.51839 111.65510 72.85685 28.48955 -7.28155 -22.47791 -19.93270 -18.70082 -8.68148 -0.79404 21.75576 64.52568 49.06524 36.35439 13.63753 -2.89693 -13.94681 -24.75136 -29.50968 -43.37908 -46.10055 -43.59553 -53.89838 -52.82226 -58.18098 -64.64958 -60.34349 -77.02425 -76.30305 -84.84621 -77.23317 -82.63659 -81.39509 -94.05464 -92.11990 -91.19532 -82.54745 -78.76516 -83.56592 -85.40041 -88.37608 -96.89590 -90.63792 -104.55137 -106.28231 -104.85183 -110.31612 -112.56002 -123.03467 -119.77990 -115.89381 -112.43822 -125.91332 -118.58519 -127.18901 -126.14095 -126.84402 -127.01571 -128.97500 -126.02932 -132.12625 -122.50176 -130.34194 -141.79017 -130.08099 -138.20537 -141.52906 -139.52733 -150.12418 -158.26128 -161.06351 -165.89851 -199.02245 -243.51703 -453.01259 -764.52959 -805.34540 -879.96970 -949.32567 -963.08726 -949.92106 -923.81583 -882.66630 -803.31337 -771.37076 -725.44525 -678.91023 -631.25080 -632.61952 -647.09454 -635.26953 -641.66959 -673.29989 -700.10147 -755.15830 -797.74945 -881.16464 -970.37402 -1067.41315 -1070.34703
777.57299 787.21509 687.57369 580.40927 525.20637 403.70539 312.28159 312.36548 267.65349 305.18987 360.77387 419.20826 509.88317 550.40939 587.49522 483.95991 389.96467 273.25750 171.79081 100.64757 99.33333 64.92330 127.41467 109.42876 126.35613 74.73089 54.57175 27.27862 51.68190 98.54632 103.65557 108.56626 72.32979 94.06524 148.58678 176.97405 138.38272 97.88371 72.35834 20.65096 -1.82757 -1.35611 3.52525 12.46319 11.03293 36.79704 58.46865 90.94250 89.68925 56.21074 33.01015 3.31644 -27.14346 -14.38613 -34.72998 -31.06030 -33.26874 -41.09560 -47.68398 -54.42020 -53.62701 -51.02014 -56.44094 -67.81050 -67.60847 -67.72757 -65.53709 -73.79043 -77.32165 -82.40931 -86.06224 -88.37203 -75.47686 -82.17480 -84.07326 -79.47449 -91.73017 -90.55498 -96.36255 -99.67879 -96.24683 -105.71307 -109.29150 -112.41781 -109.13154 -109.11012 -121.20819 -118.86578 -117.40216 -129.87191 -119.50414 -123.45571 -129.57552 -121.03196 -126.46575 -124.33965 -123.11020 -123.14079 -123.25911 -135.30938 -138.41713 -137.68533 -141.23119 -139.99830 -147.20967 -163.25980 -160.34292 -160.79606 -191.00999 -212.38009 -362.03660 -604.80206 -758.25875 -906.99062 -923.08060 -954.17580 -896.36625 -843.74219 -839.92068 -790.00744 -727.89824 -703.66891 -638.77543 -619.89812 -589.69777 -600.26364 -608.67012 -630.15300 -650.44953 -696.40803 -705.81649 -743.35681 -844.37160 -964.73557 -1005.34345 -1000.81372
701.65369 705.01040 663.50523 570.11190 523.57768 419.72705 312.19073 274.51329 254.23960 299.58128 364.26955 470.07442 483.37836 559.44058 602.24069 511.49950 386.50161 272.05016 256.81378 178.98064 192.54746 165.99754 146.90606 172.47745 151.15707 138.47946 94.62136 83.98629 70.75083 104.08163 130.92162 124.83577 133.25516 154.34644 203.10835 192.67507 174.53586 121.36683 81.32641 46.90926 15.16537 19.31514 15.56454 54.31171 62.89647 54.29150 86.51282 99.62207 135.04290 84.01652 44.14181 -6.83021 -11.31450 -21.15492 -23.79519 -23.87199 -29.30862 -30.25792 -52.02120 -52.80755 -53.70154 -66.71325 -63.18807 -54.14317 -54.44563 -59.18811 -68.12242 -63.94850 -71.68026 -89.63754 -81.07425 -81.32093 -70.44150 -79.09328 -82.89637 -82.31727 -97.89434 -92.42689 -102.48652 -103.94739 -106.49471 -110.26492 -107.25631 -114.35559 -116.97874 -116.61594 -123.47339 -114.95151 -118.16309 -130.18812 -124.72912 -117.47902 -129.82123 -128.98906 -128.35154 -128.07676 -129.90889 -125.62109 -128.70149 -135.20182 -136.83390 -140.73461 -142.55782 -149.37197 -148.86318 -145.51328 -150.00007 -163.22659 -190.80950 -197.03632 -352.52641 -534.11555 -686.07710 -821.39593 -887.36966 -892.17818 -875.73551 -833.96161 -806.17763 -735.99837 -687.11839 -629.32222 -608.30688 -585.36495 -577.99945 -549.30855 -561.68210 -587.37624 -579.87733 -624.28733 -651.09459 -710.55995 -729.00986 -923.66289 -930.85637 -926.36087
644.38764 648.50119 620.65299 519.87749 442.82017 421.67069 351.72335 275.58493 239.51782 299.25543 357.91073 454.24309 533.04242 589.22248 606.15957 570.63054 431.04045 328.23257 262.55143 244.69514 232.95254 234.60465 226.23218 247.08921 241.84716 179.69212 154.45962 103.18863 100.88503 113.17921 151.88662 190.55495 179.93827 229.77825 241.14560 229.26497 173.64463 158.80058 108.32706 75.90211 69.25939 20.42346 28.74277 72.10617 112.19542 117.96777 146.57123 148.10567 157.62778 122.49071 28.88604 -3.74217 2.13776 -5.67220 -20.56524 -25.70550 -30.59027 -36.64061 -41.43396 -44.94047 -63.63657 -57.06018 -63.48203 -58.80246 -52.50488 -59.09120 -66.45173 -65.39687 -77.48411 -88.17859 -92.54244 -82.14155 -79.79737 -82.65955 -88.60125 -81.20670 -94.95003 -109.23330 -96.53505 -107.68963 -104.55452 -119.01860 -125.79417 -116.16280 -113.17166 -121.69023 -123.10154 -120.82963 -117.83826 -125.87723 -119.29302 -123.27578 -123.52896 -119.80712 -131.91117 -123.14355 -130.96325 -135.84238 -130.61274 -127.31827 -129.26818 -136.56518 -137.65114 -147.80818 -151.79729 -152.29080 -148.07508 -162.42448 -178.79269 -189.66502 -375.54281 -489.04951 -670.43612 -749.55414 -810.88505 -864.07721 -845.19450 -822.69592 -735.91544 -724.49968 -629.31663 -587.81960 -544.63734 -516.38996 -516.35852 -506.98404 -518.62706 -530.80597 -518.42007 -563.99014 -577.05924 -643.85686 -715.19083 -796.00330 -856.81886 -854.95360
572.17376 562.33841 566.56606 474.00574 404.03506 364.51285 302.26829 247.75896 226.06292 297.83448 361.27589 462.71192 482.29883 552.21418 579.48735 544.32560 485.26284 425.25694 381.64868 327.85095 322.35748 339.05479 299.39914 295.69708 307.49389 270.44781 201.35361 112.16576 115.97294 136.48813 186.18234 257.06594 249.64621 264.11820 274.15697 234.24210 199.05084 159.20408 155.45715 122.27681 97.09660 68.51637 60.71557 135.13112 152.39073 143.29408 170.58895 177.97641 144.88758 98.67709 9.52789 7.72623 -0.89213 -20.69751 -28.75678 -24.50845 -33.71719 -34.96985 -51.30739 -58.30151 -63.27646 -70.15902 -70.42601 -68.36921 -66.41679 -70.39268 -62.37178 -64.44093 -82.24632 -87.07279 -91.14933 -80.52892 -80.64145 -89.54232 -86.95146 -79.10095 -93.08258 -99.34765 -98.86560 -108.78170 -109.89023 -105.53469 -118.45332 -113.27378 -115.74802 -120.55529 -120.27273 -120.17581 -119.81854 -128.55282 -124.66350 -124.50625 -124.18224 -124.38322 -131.11284 -121.11807 -130.56976 -122.43266 -125.75728 -138.03445 -133.23882 -138.47369 -140.13167 -142.43768 -148.72635 -144.06252 -146.98578 -154.62944 -169.06983 -182.54647 -305.54277 -420.25805 -648.68316 -721.56811 -835.54821 -823.10463 -824.89804 -813.86828 -708.06577 -620.68760 -612.50513 -510.08796 -496.75166 -482.82760 -466.16016 -460.73007 -481.77517 -471.43262 -496.80091 -505.33761 -542.98426 -609.94002 -645.82263 -756.19794 -776.88323 -772.75490
489.98561 486.48869 504.44478 370.16987 339.27905 349.46859 277.62946 199.06417 203.75257 275.74145 352.25064 414.13273 458.23359 475.39723 498.23727 511.85433 489.42401 469.23315 434.89464 395.81081 425.14697 420.50719 393.12148 356.64130 313.03407 279.19568 224.20314 195.70862 133.67511 177.19192 253.21226 307.26007 302.80667 284.74907 256.38784 200.60447 183.16517 161.18383 180.86500 163.85029 145.54012 126.12780 130.80313 150.27246 160.29071 149.85072 153.87801 137.41863 110.52633 79.37152 13.91645 1.29515 -20.72083 -32.53003 -42.02087 -33.45662 -31.13260 -35.68917 -52.64615 -61.02938 -68.47823 -74.49430 -76.24587 -76.49545 -75.28210 -68.03144 -74.94754 -80.74306 -80.16190 -80.31550 -78.76826 -77.28043 -77.72955 -85.02689 -89.30240 -96.99821 -101.84232 -97.45612 -102.27171 -109.39914 -104.80536 -107.24629 -108.06254 -113.10981 -118.32162 -117.73576 -118.95506 -121.32709 -119.99191 -128.01490 -119.16887 -127.25590 -122.94644 -117.90937 -125.61259 -131.02366 -121.37076 -134.39748 -133.36137 -124.23371 -134.02212 -139.42660 -144.31893 -141.50937 -147.42920 -151.63068 -153.78998 -159.76013 -168.79141 -173.36120 -305.20018 -379.23925 -562.86011 -627.47087 -789.62049 -784.91120 -782.52183 -732.06170 -648.10753 -598.42477 -537.64899 -509.47745 -479.99574 -447.76758 -456.83155 -438.59611 -435.82117 -435.59008 -457.13525 -470.36166 -493.95166 -518.95124 -570.29150 -627.25958 -697.55154 -694.94733
462.20381 452.05249 383.40031 307.79425 308.74386 299.74313 244.00379 207.79582 202.08644 233.87664 337.13404 374.17528 385.78176 424.15951 449.43739 463.30876 460.52825 471.15991 504.36089 508.78944 512.13361 455.98550 429.39609 365.39192 321.84361 335.93177 303.55474 268.48018 291.75041 276.69836 352.00639 341.35382 323.71931 285.93995 225.24375 149.48284 135.09581 155.70270 171.00208 162.47978 144.06658 127.07410 142.35774 132.47346 136.74562 142.68766 105.19074 74.24185 54.22467 37.94945 14.23844 -16.64966 -23.44391 -34.35564 -34.32435 -37.88964 -47.17781 -52.20365 -55.19848 -60.22935 -67.59092 -79.94869 -74.27243 -63.32813 -71.47931 -67.63416 -87.12498 -70.07612 -78.68780 -76.71935 -75.91714 -71.57337 -73.54436 -87.16691 -84.44429 -94.97963 -91.68918 -98.73954 -107.61818 -101.78973 -112.11312 -111.97350 -111.63313 -113.69006 -118.26773 -111.10556 -120.13622 -119.30279 -117.94925 -118.01713 -119.02139 -121.19589 -122.72413 -117.70792 -123.62567 -126.67326 -129.85666 -128.50798 -125.89213 -124.60677 -130.16897 -138.99471 -137.00267 -141.16549 -151.53265 -152.73906 -152.69209 -161.73853 -167.70580 -171.78090 -208.50537 -349.36462 -473.32269 -581.13105 -672.14167 -687.77062 -680.62396 -686.46530 -646.93747 -538.84759 -500.32477 -452.62402 -429.82631 -423.54695 -424.77238 -415.69002 -415.76327 -424.37773 -442.23402 -459.89908 -468.63958 -501.79764 -546.76748 -623.23719 -631.64105 -643.49687
457.52602 456.96416 389.80459 300.46651 285.27157 241.87397 207.71988 171.42423 178.23367 213.65381 286.84078 359.23746 373.14942 344.45478 349.27440 368.37649 413.14057 476.54870 521.52373 539.55485 497.70337 422.32415 405.27590 352.94740 343.36778 360.39338 365.67805 354.40519 354.93290 414.13728 384.79100 348.86227 291.36562 274.96983 190.68929 96.34821 79.95520 120.76890 157.12089 141.65615 112.83518 114.95495 81.36654 105.06064 112.79791 101.28752 78.22072 45.96045 5.37163 5.44924 -10.40026 -27.93334 -24.27948 -41.31857 -44.49107 -53.21116 -60.77148 -59.08266 -71.26126 -71.52209 -64.58764 -56.95765 -62.52237 -60.29705 -59.71729 -71.50129 -73.28528 -72.53802 -63.62433 -62.84707 -64.53397 -66.02595 -78.07645 -90.39192 -83.77495 -84.79749 -105.89531 -107.67714 -104.54885 -112.79696 -109.33381 -123.48455 -119.14210 -114.81555 -124.59420 -119.08326 -120.76166 -116.50031 -110.89976 -118.95707 -121.49278 -124.79268 -120.77395 -125.60348 -125.66506 -132.20898 -121.75290 -127.10568 -127.99085 -139.87338 -132.87237 -137.53905 -130.65511 -145.58049 -140.68102 -155.88904 -145.29710 -150.39104 -155.76240 -160.65669 -226.91724 -259.79448 -435.34488 -491.00103 -581.08695 -635.91606 -626.38101 -635.37098 -565.64902 -546.84560 -484.90462 -431.86947 -406.88915 -385.37175 -394.87948 -399.15039 -405.20663 -432.20729 -424.73976 -440.25393 -458.70893 -490.64778 -510.26569 -568.44303 -583.50233 -595.80531
469.07861 472.34524 400.97389 273.02638 270.49676 187.85950 154.14196 147.09365 170.79637 231.31804 244.16704 322.36511 317.26614 302.50893 302.73019 311.46913 421.86696 464.68465 504.70094 515.14487 477.68271 409.21228 382.02260 294.89283 301.49066 340.84431 381.69582 391.51580 412.24451 421.76245 426.65115 351.84967 235.89642 206.16674 130.30272 59.55828 49.61985 55.06468 60.48194 82.83836 70.27983 60.74934 36.18969 50.68227 52.80170 48.84990 28.01953 -16.50799 -31.43919 -33.09601 -31.90917 -30.85320 -22.05135 -28.25354 -40.91138 -56.31559 -56.28254 -55.17536 -57.47151 -61.02685 -55.32114 -48.27624 -39.05647 -51.78331 -53.08528 -63.88362 -68.26528 -61.86547 -60.69388 -68.25405 -71.54314 -69.24254 -76.48704 -85.23242 -92.91876 -86.72241 -91.91511 -96.00544 -109.83259 -110.64756 -112.54316 -113.90303 -112.23378 -114.03773 -112.58764 -118.33795 -123.13380 -117.20699 -118.95830 -120.12213 -120.62270 -118.24246 -122.12924 -127.49138 -123.04555 -126.16264 -125.12245 -121.70681 -122.60372 -124.67313 -125.36310 -136.70367 -129.34373 -140.50859 -143.37767 -144.20137 -149.70905 -150.72786 -149.51594 -158.29236 -188.56082 -277.29769 -322.72157 -394.92856 -408.43899 -534.27998 -523.96898 -580.69255 -539.37657 -490.47624 -447.63953 -401.64774 -373.22919 -367.74071 -371.86797 -372.03930 -392.24678 -402.33625 -418.05747 -439.66730 -451.01767 -473.11158 -498.74107 -537.29887 -558.54039 -560.07857
471.85133 477.84696 419.12358 292.06802 224.63896 191.35930 135.41580 116.05486 157.54154 195.30364 216.70880 247.42474 235.11828 249.92317 256.38238 305.50053 351.19161 450.30807 471.64405 446.71119 421.72817 369.82340 313.79153 271.74263 256.02303 278.12285 358.93015 361.98877 401.56768 426.16780 440.22197 400.95035 314.81112 188.44013 133.67552 62.86086 40.29809 19.19966 31.37640 50.75959 45.34580 17.97321 26.25554 17.00000 38.58593 1.81039 -12.41677 -13.08018 -35.31607 -42.04565 -45.57181 -39.37644 -35.77540 -41.00941 -51.13828 -54.15726 -47.52076 -52.25325 -63.00145 -53.48032 -54.25697 -45.99277 -42.02119 -47.61174 -58.64948 -59.90659 -64.33343 -69.59214 -63.50797 -72.38674 -63.82644 -79.27148 -84.19080 -87.04526 -82.84504 -93.97921 -98.64978 -101.20014 -109.18242 -103.98903 -105.71081 -103.49883 -109.57049 -108.10740 -107.10119 -118.52179 -120.01140 -123.48726 -117.32162 -126.38730 -117.26317 -113.65373 -119.33488 -124.53312 -123.13939 -123.84505 -127.35169 -123.03211 -125.90578 -132.37027 -134.70031 -139.93137 -130.61022 -138.24958 -143.26673 -150.42880 -143.15965 -138.96426 -150.09574 -156.44488 -156.36192 -219.66748 -267.49022 -345.97639 -348.41849 -365.54194 -476.64360 -477.86331 -501.89789 -420.36834 -379.47828 -365.44939 -325.28641 -333.16001 -344.87870 -358.79269 -383.64658 -388.26688 -412.37157 -429.41846 -452.36612 -480.50071 -503.24378 -559.58947 -551.69362 -539.90565
521.75321 527.37604 447.35576 294.21703 271.93368 167.27211 153.07080 120.99459 136.58499 94.38656 137.57235 170.10744 181.78739 170.23549 228.46679 269.26626 327.84145 340.24314 332.45366 318.67217 300.36678 287.64055 232.06194 198.49478 193.39419 264.73321 288.05478 314.37898 363.38589 378.99241 443.47638 392.40707 302.33654 198.26375 143.66368 82.46815 49.32712 21.16607 8.56276 -4.68248 -1.18936 -14.45186 -12.25153 -13.05832 -16.19860 -21.62565 -30.19814 -40.50126 -44.08219 -45.97577 -45.59054 -46.76847 -50.12611 -56.04307 -44.31255 -30.47858 -29.29655 -31.91994 -31.59841 -48.13395 -36.63641 -32.41151 -38.16228 -37.72165 -48.82990 -57.29203 -64.66995 -67.64361 -71.04982 -75.46177 -73.33802 -85.17490 -90.67159 -84.83787 -89.01010 -95.45391 -108.64390 -97.11373 -103.53771 -109.00161 -98.56072 -104.00290 -99.99169 -105.34040 -117.35885 -122.96004 -113.81719 -112.16549 -118.06475 -124.02508 -114.30453 -118.50661 -116.02523 -117.31586 -122.67084 -126.01842 -128.66919 -123.36242 -127.00906 -133.44595 -137.55116 -135.27524 -137.14594 -131.91941 -141.56575 -143.33456 -140.19612 -137.84291 -147.67832 -155.86827 -153.53531 -200.31340 -229.99918 -214.77607 -231.23832 -314.47587 -326.93447 -429.43615 -429.05485 -384.88176 -365.51800 -307.64542 -323.39806 -300.18436 -310.39714 -321.64305 -333.87518 -373.75792 -390.93898 -442.40186 -446.58927 -496.71997 -534.56470 -585.18996 -576.70561 -579.69090
525.76621 521.33598 438.72353 308.87123 277.28043 206.24542 182.49979 158.65159 152.00068 131.60241 100.53080 125.38969 115.24047 139.12942 192.44115 212.66439 247.05211 245.33182 260.29252 271.07531 269.94381 252.41563 182.42299 153.66650 144.53632 204.50792 268.40889 297.92675 279.49457 326.75564 386.68309 370.62722 327.77358 214.17236 173.42261 100.76753 124.28104 27.19593 35.34506 27.21258 18.77329 -8.52761 -10.62040 -12.77372 -25.88967 -34.50154 -37.03807 -47.20203 -41.94854 -49.17055 -34.69379 -33.86490 -31.02889 -34.84353 -41.32539 -29.63649 -23.15485 -20.68840 -30.15746 -35.70655 -23.66777 -28.44318 -32.56000 -36.72261 -50.39455 -51.30500 -57.46671 -72.30253 -66.86798 -74.71710 -75.32089 -81.55607 -87.60514 -90.56201 -90.52784 -93.07471 -103.47088 -107.24279 -102.10266 -107.98062 -102.74460 -104.94877 -106.15964 -108.90559 -114.64320 -113.37120 -122.73027 -117.73957 -117.41287 -111.25892 -120.39353 -121.16059 -118.93164 -121.89708 -126.46554 -124.53147 -120.63330 -119.98684 -122.81862 -124.97855 -130.27484 -130.85871 -131.36288 -131.34042 -135.22810 -135.96324 -139.60209 -146.95024 -146.46196 -147.49031 -151.26187 -158.58301 -158.04556 -170.35413 -200.49373 -222.84409 -258.96181 -313.44315 -328.47595 -359.56555 -320.60721 -316.32126 -270.41212 -289.30071 -278.08607 -300.28458 -317.72497 -323.86040 -395.34129 -425.65963 -442.09050 -563.99560 -559.79909 -590.69147 -642.48432 -638.92251
548.25373 552.88362 554.18821 350.85667 304.07999 268.99332 223.51586 222.01335 198.32336 152.71123 122.73628 86.59768 100.71446 119.78675 172.12671 190.56537 223.64151 233.22191 207.69340 233.50010 279.37348 257.07770 183.37482 132.53971 117.88543 154.31195 203.14925 208.53681 210.91020 295.98625 379.67336 366.80382 360.78992 290.04091 202.83199 212.98791 246.44527 152.44960 117.70107 99.93177 94.70882 52.21347 10.92863 10.73013 -10.07526 -27.60819 -20.19492 -18.55126 -34.42314 -23.46220 -1.57720 -10.72137 -9.53096 -28.64767 -7.70889 -8.21640 -15.85190 -13.06954 -1.67434 -9.22510 -26.15149 -21.08404 -19.38931 -25.73590 -38.11663 -46.89732 -57.35162 -47.63606 -60.04452 -65.14272 -80.61712 -81.07055 -91.85198 -95.67406 -93.97167 -94.42039 -107.56413 -97.85433 -98.04501 -106.13414 -108.41378 -103.00591 -113.39103 -111.99978 -118.57755 -118.33784 -127.62846 -119.70569 -109.86884 -116.29400 -123.33495 -113.01193 -122.05982 -129.32996 -111.09442 -122.84079 -118.50254 -122.91630 -130.37860 -126.39101 -129.43803 -124.48738 -126.20168 -134.34778 -132.70320 -129.93858 -139.99784 -139.37660 -149.13375 -151.56266 -156.21863 -148.20512 -161.67415 -162.66785 -176.97190 -205.21185 -221.85309 -238.06781 -289.19892 -290.88537 -297.19756 -247.79743 -259.74623 -247.98255 -258.85271 -247.61507 -284.64072 -317.25255 -383.52233 -422.34155 -489.98255 -559.46811 -643.07912 -694.76647 -708.36589 -716.75365
576.33844 575.38497 590.27341 385.77717 323.90292 298.02991 288.49509 247.88358 191.19317 170.34646 102.51610 59.87554 66.43376 77.13030 128.51477 133.09566 138.49426 151.71107 180.05937 226.12513 274.83729 291.96009 200.49966 136.42525 97.08954 95.07263 134.58236 155.47523 175.23805 256.59918 310.03956 362.55769 362.75465 305.11786 265.69838 252.70135 260.99404 237.58799 209.82302 179.38433 134.74101 108.37428 58.50994 15.61355 6.13739 -8.69513 -9.58965 -6.08809 -12.92496 -18.54628 2.17085 29.88027 33.67508 32.18724 30.57007 14.91458 -4.67286 7.68979 -3.95632 -7.28358 -8.35741 -8.58851 -22.94789 -22.30317 -43.64195 -48.62165 -45.09117 -57.09438 -63.18167 -74.22267 -79.83750 -80.66698 -81.83561 -89.56416 -93.08749 -92.51075 -95.99197 -90.80526 -100.26156 -104.29957 -109.08270 -106.45094 -112.29200 -108.88401 -116.41516 -113.68150 -116.40269 -111.74859 -112.53678 -114.66322 -117.54933 -117.47547 -116.98324 -116.85169 -126.46980 -120.80536 -124.41230 -128.22678 -122.29398 -126.35620 -122.19355 -134.79250 -128.19560 -130.90760 -134.96665 -139.36999 -137.57752 -140.04323 -149.37437 -141.85483 -146.35703 -149.66636 -154.82388 -156.51173 -166.46899 -166.56993 -160.75746 -197.38560 -219.77338 -224.06273 -223.32621 -219.33712 -231.71059 -230.02236 -233.08139 -235.07087 -260.55499 -283.52288 -346.17173 -399.24452 -501.23971 -560.12308 -647.68163 -711.92289 -762.83794 -761.59761
659.14252 651.64935 567.48972 438.11636 435.88659 341.11239 315.62613 251.04492 187.79213 132.92586 72.82555 53.86790 40.25613 44.39860 78.35054 82.56313 75.62137 141.28080 179.20810 212.52151 271.97849 279.05806 252.77394 176.60045 111.56586 77.50764 88.71781 120.44450 155.01635 228.27120 263.98500 336.55597 340.05544 336.33802 334.30687 324.57963 325.15508 301.58824 260.91315 217.10780 182.99294 135.67912 54.91774 43.89162 46.47013 34.29070 10.98739 5.56782 -0.58040 2.47380 21.31337 35.21754 55.24047 65.16941 44.51155 28.74371 31.07969 15.65784 12.51566 -4.86188 3.87704 -1.29942 -0.53113 -14.07428 -29.63938 -51.91507 -38.79766 -61.08964 -61.00609 -69.90942 -81.94515 -83.44751 -80.87926 -84.26048 -85.10455 -96.73676 -98.55310 -98.51341 -101.25632 -99.62909 -105.00137 -103.65462 -107.97373 -109.96918 -109.97996 -111.12424 -108.65490 -113.63998 -113.06869 -114.39205 -116.78125 -105.48342 -122.23451 -119.41485 -128.29896 -119.86921 -122.85260 -128.47219 -121.79721 -125.79786 -127.57162 -129.93806 -130.17842 -131.79745 -137.14827 -140.39836 -139.12408 -144.45282 -143.19190 -148.77228 -147.13624 -151.88395 -157.04400 -165.94256 -156.42017 -163.13795 -172.64706 -166.58744 -174.83752 -204.67923 -185.68327 -188.17412 -186.05457 -186.96488 -185.70041 -193.67737 -225.80437 -264.09156 -300.79862 -336.91613 -454.53652 -564.11057 -603.88979 -746.12879 -754.52047 -746.19541
654.85620 663.99741 557.51614 544.71229 527.25009 431.68260 345.02799 270.48897 208.60442 177.54716 113.92792 75.64102 49.31535 40.26175 26.52491 36.02103 37.31176 81.21446 143.46480 219.23303 232.06459 268.92509 214.05556 168.30599 92.67517 70.30144 87.56862 126.30866 194.63492 243.25900 256.23343 262.40823 247.43561 292.42661 307.43444 328.01487 327.78945 317.53910 309.11337 268.97655 236.94375 176.06150 130.16795 87.88542 83.74817 82.65772 62.31255 44.92554 17.11973 1.94742 15.41315 42.40853 53.38940 63.69181 49.35034 42.94894 17.41022 19.48857 8.90166 -4.06872 7.65635 -7.22309 -14.00292 -13.70868 -35.86864 -37.85948 -47.15104 -63.57847 -65.34977 -66.11246 -76.24563 -71.14821 -83.06637 -84.77850 -82.88072 -82.54815 -92.78590 -100.24932 -92.87789 -96.27646 -102.43849 -101.36549 -110.22231 -108.27766 -117.19270 -104.09499 -122.48987 -116.09671 -117.44461 -122.13073 -114.69756 -118.81874 -115.81770 -116.77552 -124.32363 -126.33385 -125.83507 -122.68528 -122.06742 -126.61428 -128.18126 -127.04228 -130.03723 -141.26133 -138.31867 -137.40315 -138.04153 -139.11877 -138.55140 -140.15712 -150.66157 -147.21936 -157.52692 -146.50748 -159.63035 -159.19038 -160.81869 -169.23729 -168.78946 -165.15817 -173.36531 -165.96194 -168.53794 -171.15172 -172.60632 -173.34062 -198.57687 -236.77563 -247.93662 -284.98387 -412.34848 -540.55621 -623.93408 -680.30328 -711.69545 -716.77130
673.08311 671.23265 686.26183 598.95546 630.79126 542.77844 472.50669 361.78446 283.29548 202.88783 163.87730 126.38578 67.87172 58.02399 37.63241 7.44103 21.09198 45.28847 98.57535 176.61323 196.14219 199.45771 181.00163 110.86783 88.66299 68.00476 82.57699 161.78842 189.02206 217.43799 247.75654 222.31274 205.28343 205.07515 228.74526 284.34554 296.63245 308.32492 309.39401 287.93117 273.62297 221.88286 182.00045 118.82879 128.49933 123.30193 102.00290 78.85113 67.20798 47.88430 24.41690 24.90405 37.93240 38.17562 35.46666 9.89099 3.29555 1.26324 1.16661 -8.35084 -7.50660 -2.90703 4.51719 -11.68293 -23.68945 -37.54384 -39.16793 -56.70357 -59.75136 -58.55967 -66.98303 -76.51528 -77.21799 -78.79269 -91.61446 -87.14419 -84.87077 -86.25579 -95.62566 -99.10496 -111.26625 -110.70310 -108.63294 -110.29338 -113.36347 -113.77298 -113.00044 -120.40854 -113.13308 -114.07318 -110.43470 -121.97799 -120.22765 -124.37605 -113.33686 -122.80929 -121.64038 -117.44659 -128.25591 -123.61455 -131.32006 -123.73940 -128.00949 -133.46061 -135.65459 -143.95121 -136.59725 -139.02604 -143.58606 -141.20276 -148.16997 -142.68331 -145.67273 -142.15280 -145.03386 -154.26607 -156.04880 -151.85958 -158.29347 -155.83795 -159.82331 -159.99387 -160.12856 -153.22695 -160.37413 -169.45326 -162.77414 -200.27243 -238.01490 -279.48855 -393.17393 -483.18639 -510.91367 -622.74246 -669.55711 -663.24265
770.60006 764.75108 710.66084 645.86455 637.83570 586.68696 502.74816 409.86061 314.60641 274.19347 248.64143 186.72685 124.73047 91.21350 54.04808 13.84364 19.79359 37.37983 104.85704 125.04642 129.24992 109.45106 130.08426 91.50814 67.17839 41.43861 95.25431 142.36426 177.27389 188.85460 182.35276 172.80088 150.71926 155.80303 200.34359 210.15471 243.91634 250.99549 269.21896 286.01755 275.53651 227.59151 176.96018 147.07127 139.54526 141.36501 119.96607 91.59665 84.61780 69.03488 31.37667 29.75926 35.56955 23.72774 -1.61994 -11.18989 -3.55295 -8.50342 -13.23458 -15.61948 -14.93705 -7.85620 -8.75394 -4.53506 -15.10332 -27.75415 -26.30582 -52.51070 -60.19113 -68.48853 -63.19510 -68.54916 -86.35797 -80.55862 -79.50215 -87.41119 -87.43955 -88.72034 -102.90743 -102.41645 -97.39748 -111.54643 -115.98132 -104.83791 -105.51596 -107.11989 -114.75593 -115.71342 -109.97590 -113.02722 -115.30126 -115.70588 -115.71345 -119.51277 -117.56156 -114.68085 -119.61031 -123.66743 -119.06843 -122.98178 -122.87807 -123.83809 -134.19518 -129.27700 -129.72792 -134.26429 -129.59747 -140.50916 -138.85327 -142.46979 -146.00051 -147.59383 -145.66637 -143.88609 -145.51874 -157.29243 -155.15861 -156.29012 -161.90045 -160.75544 -152.45840 -146.55224 -140.91409 -145.74211 -145.72461 -152.57458 -154.12210 -172.56571 -190.37461 -267.91618 -309.53913 -440.82501 -437.65224 -532.63540 -590.12151 -584.93041
755.15022 755.80994 756.80730 614.62800 635.54251 627.36868 559.09786 486.53319 392.53799 318.95606 269.87852 174.42547 128.58605 86.72772 51.65433 13.05640 15.62323 51.94483 86.89324 123.12165 107.64608 86.98204 71.86702 53.99405 40.33056 46.51569 91.40210 162.60518 167.75534 160.82300 148.28118 108.31886 109.52321 155.47235 147.90382 158.81410 168.22897 196.80882 231.63794 258.53287 255.32409 213.45192 190.46153 149.14379 151.53702 139.20154 135.00441 100.11337 82.71921 63.61144 59.19145 26.37627 5.16612 -5.31150 -1.59780 -16.77353 -2.61683 -20.15862 -19.66709 -28.26313 -23.98707 -25.02156 -16.51243 -9.48578 -10.03455 -14.57251 -30.78632 -48.57044 -53.18392 -54.78411 -65.83434 -79.69657 -81.10205 -86.43952 -86.03479 -92.49017 -95.09145 -92.09339 -94.94706 -105.98514 -104.32288 -104.86091 -104.20402 -97.83666 -108.70538 -108.25127 -114.31742 -114.81520 -119.60347 -113.33344 -120.95662 -118.92937 -113.30226 -119.89582 -116.46045 -122.17913 -122.44915 -112.97672 -119.31713 -119.90734 -119.05146 -122.86995 -129.94822 -123.75911 -123.73544 -126.72715 -135.66721 -134.06982 -133.85538 -146.95651 -143.46652 -144.07885 -137.76483 -156.06691 -153.42156 -153.82323 -143.13516 -148.83967 -149.09723 -140.88141 -134.67379 -137.78910 -128.88052 -132.62404 -135.30365 -141.44412 -141.92022 -156.24606 -185.06262 -202.91772 -233.93998 -353.97538 -383.68572 -486.86675 -498.73002 -499.76822
752.77059 751.74537 639.10045 600.26757 601.50219 612.54954 547.16039 446.92425 414.66620 326.83418 252.50684 182.81769 145.18997 110.03702 61.94767 37.85689 28.43041 24.47012 42.67526 61.69229 47.29748 53.66722 44.07874 18.47909 39.47599 76.08144 106.12081 151.37473 171.65829 134.80337 95.60930 77.47765 91.15522 128.59088 144.53547 123.09794 126.42815 140.27023 213.91426 241.15138 233.44338 182.99758 139.03517 127.60434 120.38930 88.99250 87.22336 90.82242 60.42435 57.18941 33.93851 16.22705 -4.67510 -5.75265 -18.72310 -21.41122 -18.75108 -19.94051 -26.32813 -37.41558 -31.76352 -27.95194 -7.29941 -8.60393 -7.90497 -11.94251 -37.88749 -46.83723 -55.46130 -62.71258 -73.82108 -83.19004 -75.91747 -78.18138 -96.32021 -96.76463 -95.18106 -98.23210 -103.14414 -100.66037 -101.43772 -104.15280 -103.11709 -108.73885 -107.49908 -114.06878 -109.69280 -111.64745 -106.58624 -111.67176 -115.37074 -114.39278 -110.70357 -112.25103 -114.88880 -117.40236 -117.29630 -120.03056 -114.66002 -115.73014 -117.25410 -122.40183 -126.85169 -120.47559 -130.66694 -132.78003 -133.29999 -133.62034 -134.04376 -138.55027 -136.66118 -150.78255 -145.60529 -141.54737 -143.71224 -152.10800 -152.86671 -146.09805 -142.53259 -131.90957 -130.57471 -120.78228 -122.35945 -131.20433 -127.03392 -145.32390 -136.91436 -137.80538 -151.17153 -168.98990 -183.09238 -260.61782 -305.28067 -376.36952 -399.26206 -397.04163
738.23922 733.51251 629.95577 525.99682 577.41814 598.68094 491.01349 426.62768 317.71876 293.57926 234.52291 148.70331 131.41291 79.12557 113.90369 62.84546 35.76619 3.22736 0.96430 7.21369 20.38246 12.95997 9.75077 -1.65296 30.53317 58.00033 109.35908 133.16081 145.50949 126.29675 91.25024 41.31566 47.31719 78.18649 95.19984 104.49628 141.73971 150.38383 204.67333 241.07477 215.59607 190.82112 104.06490 97.02171 65.48121 71.39686 55.28195 49.28129 46.44524 30.51463 21.52212 3.33477 -4.31552 -8.80962 -10.83359 -17.98959 -3.15232 -8.80550 -24.88368 -23.49514 -26.30208 -30.15162 -24.49804 -13.48845 -19.65891 -2.44541 -25.29741 -37.03735 -46.11356 -57.89851 -62.09773 -69.59470 -69.65084 -91.70407 -95.38031 -83.95885 -98.37529 -93.67450 -99.11573 -100.52695 -102.75780 -96.18513 -109.23897 -100.08223 -100.40604 -112.69499 -105.36648 -100.15594 -104.31043 -109.17827 -117.71049 -117.43185 -116.04406 -113.59294 -112.08614 -117.81653 -111.76278 -118.78516 -114.55718 -118.61293 -118.14330 -120.32720 -117.68244 -123.78420 -125.68570 -130.27705 -133.64037 -135.94476 -133.84252 -134.99656 -143.59845 -147.14488 -144.08368 -144.68480 -143.70098 -146.51604 -142.98939 -137.03683 -129.02593 -125.56969 -126.95984 -122.26338 -117.66819 -112.81294 -116.15306 -124.08569 -119.80146 -138.72774 -148.73194 -166.95463 -167.94069 -207.63223 -218.35480 -285.28659 -328.20342 -330.80692
621.65403 623.07526 556.31935 438.07263 471.46398 535.61612 502.85064 408.86258 308.49297 238.28065 148.41477 131.06923 120.20101 149.76418 152.03456 125.78039 57.57562 1.86563 5.35766 17.93689 14.12488 -0.42839 -1.39516 8.02553 23.93301 51.48757 62.59347 108.97889 92.83788 96.94093 58.75931 37.64463 15.37074 69.04731 60.42416 93.44377 137.79278 178.50227 197.86611 198.36802 178.94469 116.66159 94.27637 57.20615 58.19132 31.48299 30.27676 21.39386 29.74458 13.61363 9.03782 -0.42515 0.14537 10.87020 -1.29423 3.90915 1.33221 8.10788 5.20615 -12.80444 -27.72643 -32.62675 -36.19365 -14.80492 1.19008 -11.19481 -18.64349 -38.04220 -44.95293 -58.12141 -52.03499 -63.56225 -59.11433 -78.43454 -80.38073 -90.05758 -87.64524 -92.81571 -100.37295 -92.86061 -104.74364 -98.28658 -99.50050 -108.85215 -100.42356 -98.36357 -100.71984 -103.50310 -105.88121 -117.51302 -109.58698 -112.04824 -117.36028 -109.88252 -111.86526 -110.40140 -114.54625 -114.83185 -112.76575 -113.89474 -117.34272 -122.21149 -117.26397 -130.34084 -130.75952 -121.53334 -127.55450 -136.32041 -139.19550 -132.52423 -142.14741 -142.74275 -144.44729 -144.32525 -151.39271 -143.04889 -143.93144 -138.10106 -129.58718 -123.56420 -122.99393 -101.51433 -106.55578 -98.18255 -100.70238 -117.50458 -122.12816 -130.00237 -142.97231 -147.55759 -163.57891 -189.86815 -186.40926 -244.06934 -247.62181 -258.83461
528.19954 526.19111 497.67334 433.51203 452.74375 503.77127 508.06757 458.98930 343.16959 248.30867 144.30924 133.31819 148.25343 186.63131 226.29485 141.22171 92.47903 48.94718 63.39892 79.91132 39.96024 33.82150 4.35037 11.27491 4.92555 29.67348 24.14190 27.64648 68.83919 52.21115 41.84408 19.35040 23.21563 23.24453 30.62792 66.29484 139.99766 157.20513 162.68950 174.17778 146.59262 100.95502 63.27682 54.54780 39.38830 29.67986 24.02078 16.35524 19.28619 14.29979 19.45309 15.62389 18.02798 29.13458 27.16513 12.53143 10.54331 -0.36569 -5.44851 -12.98469 -21.21083 -32.78243 -42.43185 -35.65718 -17.77296 -14.42671 -18.75131 -27.71834 -35.48933 -40.29624 -49.48750 -54.81957 -65.28181 -70.41284 -76.94602 -90.94456 -94.75162 -84.20602 -89.35634 -89.75230 -103.57915 -95.90881 -96.78214 -109.88249 -95.31466 -108.85970 -101.75360 -104.92312 -100.85991 -106.26840 -111.26725 -112.03443 -110.77795 -107.06965 -111.70540 -116.26350 -117.29376 -114.25176 -114.14952 -115.92505 -116.96550 -117.34458 -120.05625 -124.14109 -121.16276 -130.75694 -133.74584 -128.31580 -129.91044 -137.87886 -139.63501 -136.97419 -136.92424 -136.75416 -145.15395 -145.06942 -139.83342 -137.30408 -122.87386 -119.94866 -125.98448 -102.81323 -94.02515 -96.31091 -105.86445 -109.91922 -123.22301 -133.56121 -132.20486 -160.74344 -149.12564 -152.85387 -175.22147 -184.46777 -219.56614 -226.40061
339.72590 348.13584 439.19817 388.04354 393.10070 473.84879 488.15395 473.38312 405.47464 263.65703 150.08625 173.16615 256.49173 279.02965 274.62606 201.71736 128.99334 108.72636 124.35210 124.40821 101.96922 57.74220 7.96258 1.26258 -2.38264 0.45740 -5.41793 -0.70632 30.71441 33.02084 20.93842 22.63961 4.53284 19.93119 12.06794 39.43465 90.04888 152.42882 154.23976 169.34111 120.71921 97.24297 59.08416 46.90305 37.34237 32.80651 24.42900 15.90657 19.98849 34.29921 30.21563 18.74276 46.80423 45.60754 29.36250 11.79344 5.76101 7.28361 -2.15354 -2.38717 -15.14850 -18.54603 -41.29754 -41.16907 -21.03142 -15.35141 -15.98838 -21.49770 -27.70937 -40.38827 -61.56987 -55.94581 -61.66974 -75.06000 -76.22653 -75.80283 -81.50332 -82.67032 -86.14215 -90.41222 -93.27157 -94.49609 -92.59665 -99.66475 -103.93115 -104.44474 -103.14838 -104.36820 -101.68824 -111.20137 -100.66177 -111.67433 -113.41120 -103.02985 -112.38892 -109.53550 -109.56631 -109.00956 -115.29050 -119.52377 -113.29864 -116.49382 -119.65591 -126.95312 -126.97403 -123.61775 -129.82285 -130.71563 -129.32790 -129.91504 -132.53797 -137.88432 -138.84576 -135.32013 -138.98101 -144.37069 -136.93225 -131.75840 -123.52805 -119.08047 -116.82676 -108.66735 -100.50122 -90.74272 -97.27065 -106.14648 -113.78311 -118.50500 -132.41658 -146.83865 -142.44475 -146.86214 -154.65304 -186.70972 -176.06908 -163.06322
491.42301 495.24097 377.38129 337.50597 364.11525 411.92500 448.46719 448.49944 453.62917 361.56265 289.77404 266.23352 318.31358 323.26252 279.08536 246.46212 177.09081 116.65812 180.44733 189.75366 148.91278 81.57127 58.68847 9.49656 -3.24022 -5.33995 -12.52043 1.42319 5.10908 21.96974 26.98143 17.48751 5.45637 -3.91482 21.92954 28.80887 99.48604 128.99162 152.87165 161.19066 124.08095 96.46914 62.74812 41.39904 42.25790 37.95410 38.92482 56.78490 55.72271 56.42218 48.50239 49.97696 47.46864 46.98424 44.09777 12.31895 -1.43925 -1.92342 -5.83615 -7.26040 -8.47429 -10.37775 -27.90655 -40.76009 -46.25768 -22.67787 -13.82961 -15.57523 -21.34927 -37.73314 -46.33755 -57.43689 -64.36985 -68.83547 -78.06671 -83.25841 -78.94280 -69.42492 -81.71034 -75.59247 -86.29897 -86.05535 -94.01520 -91.48150 -100.13248 -101.85137 -101.66052 -99.98406 -101.02416 -106.24714 -101.99126 -108.83093 -109.58370 -106.47533 -105.45503 -108.90613 -110.73237 -107.82496 -110.94259 -116.19402 -111.97008 -118.38472 -123.29990 -124.98856 -114.36468 -130.96496 -128.95614 -134.05136 -135.19376 -130.56680 -133.93691 -139.63384 -135.34557 -138.51320 -140.95764 -143.20448 -133.29262 -140.76738 -123.99567 -123.80122 -118.46969 -110.12511 -98.74504 -92.98246 -95.27375 -97.33461 -101.63316 -126.57894 -121.19951 -138.99664 -136.40044 -154.59027 -156.26230 -155.67957 -166.88723 -169.14176
488.21252 483.20982 403.41380 306.98490 327.48125 385.79581 431.24191 434.72418 453.34757 451.66585 341.18977 323.84819 323.67003 330.78517 305.74958 232.46597 176.95251 155.44336 200.01743 232.56708 177.75058 141.82614 76.23416 54.73797 34.19733 4.84582 -4.34294 -6.20791 -9.51194 -2.08085 -1.83569 -1.31844 -3.65953 -10.34049 4.45949 31.04746 91.49040 125.18438 153.46918 184.08733 163.80329 128.82448 97.00220 95.92624 75.71571 87.01251 80.93992 91.37009 75.61500 72.98881 60.31254 61.41330 66.15800 45.11034 32.40580 16.44313 -10.67328 -9.15632 -19.95017 -19.08656 -14.07910 -13.27986 -23.51639 -49.96212 -49.69824 -36.10484 -22.58337 -18.84735 -21.73291 -32.02254 -33.61949 -54.21119 -64.65777 -73.05863 -76.52580 -86.20856 -85.48597 -76.61531 -79.06710 -88.55294 -92.61380 -91.85522 -100.71836 -89.06779 -95.31483 -96.44634 -101.81899 -95.14144 -97.65245 -100.23096 -105.85162 -107.37353 -100.39141 -110.74046 -100.84365 -101.60733 -108.15327 -111.09120 -110.71619 -101.95079 -120.47215 -110.44341 -120.86051 -123.93452 -117.83944 -122.44761 -121.58462 -128.53628 -133.77334 -136.07181 -130.82567 -127.71909 -130.26637 -132.68142 -135.37846 -139.41140 -135.28405 -130.89547 -125.17594 -118.01460 -113.87376 -108.73922 -99.50325 -97.60050 -97.97203 -103.67493 -107.01280 -123.68962 -121.03279 -134.20301 -133.83479 -146.61124 -137.18292 -153.39719 -164.19076 -166.49015
453.60094 455.19429 387.46757 269.33771 261.00659 349.60665 412.51370 452.80768 470.30137 459.65814 425.20788 399.83369 396.65243 386.49609 346.78098 297.45157 250.63858 224.56536 288.43397 290.30539 243.72793 203.50343 114.71091 51.46033 40.99054 38.69040 13.00170 15.47527 -0.80857 -10.80140 -4.26250 -11.86806 -9.10352 -3.10808 11.60855 58.20266 118.53725 145.02235 157.43091 174.56197 186.46486 150.31105 154.09936 117.57365 119.42218 129.95262 133.48870 109.81164 69.21938 69.76049 79.07002 79.61709 57.27066 36.46856 7.42345 -7.95860 0.49104 -17.15768 -29.11715 -23.77634 -30.97571 -16.04076 -37.30980 -51.33098 -47.77274 -41.64628 -17.50297 -16.17087 -6.73213 -26.57335 -28.64456 -38.31074 -59.44929 -64.23011 -63.15085 -66.55727 -68.73871 -60.06035 -71.83741 -78.96109 -89.05405 -89.61288 -96.42876 -97.64608 -100.80082 -92.11920 -91.32440 -93.08438 -89.78876 -97.73035 -101.42161 -107.50413 -104.61170 -109.60413 -103.58166 -109.67728 -104.41826 -114.44106 -110.82830 -102.39195 -120.26324 -112.73918 -121.90831 -118.89521 -123.99437 -124.18123 -128.83396 -119.50576 -118.26277 -128.41219 -129.47047 -128.97504 -134.95539 -131.40989 -137.93849 -133.79789 -129.63755 -124.34932 -118.85933 -115.59439 -110.92058 -113.37029 -102.55582 -107.22297 -93.09027 -102.46031 -109.57478 -111.74878 -122.32748 -132.31920 -130.90392 -143.35189 -144.83279 -149.92742 -146.98711 -151.26804
446.46522 449.14231 363.94982 282.00377 262.20900 284.50736 376.37039 450.71034 500.36604 446.77694 409.18568 413.62829 449.49584 450.02763 396.75221 366.83307 302.29013 329.03064 384.87851 361.31876 341.14498 248.60869 189.79044 148.27169 89.03680 36.99260 44.56477 40.79424 8.43883 -6.24160 -18.20013 -26.68415 -3.70888 20.48538 33.63220 81.74601 117.93702 130.89924 146.27590 150.91977 162.14967 166.94834 157.52906 126.48755 125.28634 134.50591 127.91011 117.34074 80.11169 66.81133 68.23122 81.86818 62.81362 16.67065 -6.20961 -11.65928 -14.48517 -21.13062 -38.03991 -38.78006 -42.47001 -22.16544 -32.55018 -51.97881 -53.49914 -35.12317 -15.23054 -12.12959 -12.01178 -10.29471 -16.35313 -28.15077 -43.40108 -47.43599 -55.93805 -57.65086 -63.50146 -76.83939 -85.17374 -88.15992 -86.41051 -97.20733 -91.79045 -88.94559 -90.85264 -92.41268 -92.68593 -91.62928 -93.52956 -101.60992 -93.01680 -107.98997 -106.04761 -103.50798 -107.24973 -104.43317 -105.04642 -108.03381 -109.62391 -116.53846 -111.66352 -106.18566 -112.01727 -119.54197 -122.18621 -127.64000 -126.69927 -124.60769 -122.22666 -130.83776 -131.10487 -132.33556 -128.32790 -133.57311 -134.58421 -126.12838 -132.23890 -127.90321 -115.09726 -117.26814 -121.95319 -115.94091 -108.91204 -105.19670 -105.75935 -99.07844 -92.95115 -100.62649 -124.39292 -128.88743 -124.36377 -133.59868 -140.60332 -143.75382 -152.78731 -147.87052
395.83856 386.54241 400.41795 218.23139 226.35621 288.14603 367.47181 398.08577 444.50187 425.92453 420.49999 433.09505 445.28795 466.98388 423.55044 381.13840 363.48175 413.37273 462.55391 460.56584 419.87141 360.92039 206.80320 191.64463 134.69220 99.50756 58.10836 49.20185 23.63545 -11.30124 -23.53696 -21.04511 -11.00972 8.24842 31.55010 75.37784 113.48276 132.17623 139.51335 138.45255 142.37532 146.35565 126.84503 136.99086 121.77767 134.79136 118.58019 96.23479 60.76726 66.89817 61.54524 66.24546 56.49532 4.40583 8.88415 -16.80035 -15.14125 -47.10475 -36.58943 -44.10840 -52.29862 -47.48423 -48.52013 -53.71376 -54.87738 -43.60611 -33.43874 -22.84229 -14.93442 -9.02730 -22.25661 -21.37674 -31.78627 -39.60396 -40.47695 -56.80659 -63.67787 -78.43522 -87.80395 -80.11656 -92.76063 -90.26495 -84.93222 -84.86811 -85.06590 -88.01574 -93.99134 -98.42801 -95.60563 -99.27515 -101.57752 -99.00481 -102.92904 -104.41315 -110.86203 -115.33997 -103.45342 -106.62084 -110.28409 -113.24273 -119.80409 -120.88608 -115.12990 -119.77732 -115.80957 -116.99368 -122.70907 -120.84492 -128.32391 -128.84245 -128.02802 -127.00910 -130.30447 -130.40308 -130.30473 -130.57337 -125.19385 -125.65818 -121.30677 -124.89384 -107.49992 -112.93515 -114.81927 -105.80149 -108.91832 -102.49926 -94.92021 -105.30667 -105.61701 -125.61495 -117.72644 -128.69196 -126.46813 -147.21517 -135.96192 -140.10081
