25.89552 26.13480 25.76176 25.32976 24.11479 24.60954 26.41154 25.66233 25.05007 24.50497 25.94576 24.99618 24.93291 24.80634 25.18211 26.94276 25.55404 25.21718 26.12095 25.33711 24.68553 25.78582 25.86342 26.28346 26.55428 25.75428 26.47134 25.86417 22.81545 27.81817 27.84431 25.91456 27.41583 25.12853 26.72813 25.43908 27.50082 28.38877 30.99169 32.95572 34.45795 35.75781 32.05123 31.46608 26.85831 29.23071 30.89051 35.93716 40.73577 44.43116 49.63104 47.75644 46.34573 43.39428 38.06025 37.09773 32.61304 35.60310 38.36494 43.58270 46.03232 46.03070 42.83851 44.04826 43.13165 42.56886 36.62467 34.28220 30.09523 30.48514 34.57135 35.86133 35.82172 29.49457 29.73870 32.47984 33.87308 38.15173 38.73484 42.55156 44.52862 46.00690 44.78763 39.74568 37.76014 36.03034 32.57589 27.69825 29.19228 25.63879 26.87168 26.93286 27.17314 31.20192 29.32602 28.26614 28.35062 27.29713 26.88301 26.38044 25.63029 25.71611 25.85564 24.63688 25.84013 25.99299 26.08301 26.84441 27.08808 27.12142 26.50366 25.73862 24.78276 25.76128 24.47094 27.86086 25.34730 25.65233 23.15970 25.55557 25.56228 25.66858 25.88469
25.81145 26.08736 25.08549 24.21238 23.08712 23.74091 24.26810 24.28105 26.91647 24.99317 26.41731 26.48250 26.71863 25.68001 26.19826 22.74651 26.15728 26.21784 24.88068 25.82666 24.30919 24.79136 26.09226 24.59166 24.34860 25.76837 25.86358 27.25576 25.97666 28.38467 27.77072 26.97814 29.49188 29.84039 27.34092 26.10822 25.73481 27.76353 29.98193 33.36950 34.00558 37.86467 37.10670 32.37691 30.33188 26.47037 32.58813 33.29474 36.64593 44.75800 51.55632 52.18515 49.07620 46.15995 42.73049 36.26706 34.84311 34.26766 40.15918 48.49721 50.66842 50.72143 46.90609 45.99790 45.59043 42.46724 38.00196 34.91422 29.90203 31.82480 33.89249 36.74732 36.74300 34.62975 29.59836 31.12962 32.54194 38.24844 38.88642 46.44029 49.62848 48.52183 46.84497 44.00125 38.87795 35.42047 32.30162 30.73278 27.58065 28.73010 26.19393 29.16752 29.75729 29.42461 29.85137 28.56822 28.45804 29.43564 24.72056 26.52262 26.84673 24.98900 24.85739 25.83902 26.50854 25.17818 25.49793 25.72502 25.63029 24.76721 25.76836 25.85062 25.21878 25.38209 26.27159 23.87919 25.65918 25.84142 25.63624 23.82045 23.44742 25.25821 24.37404
25.21429 25.92502 22.81789 25.57281 25.21657 27.36980 24.15511 26.15702 26.04909 23.37841 23.87888 26.42404 26.10840 24.16075 23.44522 24.09966 25.82224 24.95341 24.35019 25.43800 25.24299 25.15799 23.77129 28.54255 27.71287 27.45669 26.73141 27.35815 27.78324 25.44016 28.08045 28.05413 28.70821 29.14649 29.49304 27.43826 27.40527 26.05210 29.07068 30.91816 37.03864 39.51314 38.22919 37.35908 29.64405 31.85959 31.72249 33.74558 38.49375 45.02036 50.20550 54.13173 54.29385 51.97922 43.57911 38.97836 35.78642 39.85019 47.02896 49.46468 54.81613 52.22901 47.37604 48.47261 46.68579 39.64131 36.53317 37.70453 36.90685 36.64626 37.29299 39.47155 38.89688 35.38165 34.96916 34.27192 34.15514 36.81763 42.44242 50.47517 53.94545 51.45321 47.87057 44.63075 37.28732 34.44120 32.24542 28.74370 28.81217 24.31470 28.02092 28.60494 31.07836 32.24815 30.28343 28.62496 27.51807 27.57686 27.63790 27.01927 27.53530 25.64411 27.30956 25.23722 23.68525 24.08490 24.73134 24.92925 24.79638 24.21177 25.22866 25.02843 25.84164 25.01741 25.35325 25.60177 22.86560 24.44791 24.59243 25.88669 25.41406 25.52632 25.72455
25.30770 24.08327 26.57938 26.64752 26.12854 26.49238 26.52534 26.06241 24.75250 24.86085 23.43311 24.15211 25.32081 26.86415 25.47628 26.51853 25.84391 23.57379 25.10751 25.46814 23.98909 28.39400 25.15702 27.23755 28.46669 27.28476 28.00681 27.04145 27.34166 27.27278 25.91190 29.44497 31.69154 29.72361 31.28413 30.35626 27.97032 28.07225 29.61355 32.73306 36.76101 41.30963 43.78145 40.04025 35.09446 32.31049 31.19450 33.95664 38.62393 47.45558 50.35066 54.33438 58.45330 57.50505 50.37788 43.26566 39.12953 40.03596 46.03661 51.23410 56.13713 59.90105 52.19538 53.84062 50.31814 43.29950 37.62102 41.06567 44.27099 43.13844 37.55714 43.41660 41.16505 41.97003 40.00012 36.63847 33.63736 40.91458 43.79662 47.52272 55.48102 54.87295 50.49800 42.81118 37.81722 31.69278 30.91785 28.57468 26.28236 28.44307 31.12450 31.20188 34.00649 33.38194 34.12089 29.87801 30.29536 29.20578 29.11625 29.28644 26.29341 26.10961 26.24481 26.61715 25.28069 25.78859 25.15860 26.71843 23.49314 24.35481 25.85785 24.35821 25.18096 26.00108 26.59339 26.68780 23.55403 25.01141 25.09358 25.87916 26.94281 26.55643 25.98635
24.89619 28.42862 24.65478 25.89074 25.27259 24.70081 24.09855 24.98147 24.52825 24.39834 25.40542 23.30795 25.53776 25.47672 25.13791 22.98399 25.51464 26.14130 26.13510 26.68787 27.75282 25.30033 27.20525 27.96816 26.67994 28.19746 29.20975 29.61103 27.66316 29.18222 28.46968 28.53728 29.50828 32.90925 34.75241 31.05766 31.06640 27.87061 30.36030 33.83885 39.09164 42.37449 46.16674 42.95806 41.91479 35.45380 32.33626 35.36219 37.02768 42.63862 49.85576 52.90803 56.26923 59.43851 53.96503 50.17574 45.29675 40.40347 43.86866 52.79698 60.44717 62.00915 58.14176 55.89292 49.97239 45.44452 41.63486 47.74895 48.59682 44.98143 44.31614 45.36302 48.36706 48.36983 43.55023 40.45638 39.69192 43.14336 49.36544 53.65798 57.31373 55.93485 47.77234 43.30773 39.11616 31.42750 28.48807 27.73921 28.45483 29.99168 31.10901 32.47336 34.82635 36.65606 33.26953 30.48263 30.69105 30.93299 30.25930 27.90253 29.28100 25.27147 24.70472 24.45390 25.04787 25.39505 24.29258 26.85180 23.75773 26.38415 25.59191 26.40287 24.41836 24.00741 26.04555 25.93994 24.73063 24.62316 25.29910 24.77458 26.81082 24.41683 28.06038
26.83700 23.70630 26.02806 25.60941 23.62274 26.09209 26.12921 24.86018 25.09458 26.03420 23.45749 24.44952 24.27810 25.07485 25.74754 24.73654 25.00394 25.11616 26.93683 25.62683 25.11625 26.54241 26.60065 25.50767 28.73364 28.22427 29.14768 30.51182 32.19506 30.84726 29.13519 30.29164 30.25621 32.49344 33.23313 33.27088 31.03490 29.36546 29.13691 34.80142 39.50528 43.94489 45.68011 48.22917 43.26133 41.88607 37.90627 35.21918 34.84619 38.73889 45.86452 50.21991 58.41777 63.20080 61.55706 56.36956 46.19835 41.84718 47.19132 53.19364 62.32443 67.09402 63.19748 59.39380 57.96345 51.96738 45.16228 47.67445 54.21565 51.55737 48.93707 50.91967 52.10895 51.96706 48.29290 41.46288 43.62089 43.53072 54.65327 57.56928 60.28082 55.07699 47.19111 42.17025 37.88762 33.00134 29.00874 27.48520 30.68232 31.46131 32.64314 36.11440 37.37021 38.98273 35.71031 35.87105 32.63466 31.18978 30.49772 27.43464 27.06932 27.20937 26.24533 24.14252 26.51681 25.93318 25.82510 25.59497 24.97789 25.57687 26.16902 26.26806 24.61948 25.76543 26.01161 26.03587 24.34672 26.87222 25.64190 25.97042 25.37306 24.31482 24.33371
24.74025 23.97301 26.29421 27.86364 25.15336 24.97242 24.13025 25.00880 24.24176 25.33339 26.15936 27.50735 26.58355 26.79380 25.74237 24.28021 26.11748 26.58493 27.14406 24.52614 25.00435 24.02851 26.04063 25.17074 27.86872 29.18309 30.32361 30.31776 32.59221 32.00738 32.50105 31.51934 32.49603 32.68813 35.10299 34.98022 34.67049 34.36987 31.90796 29.54237 38.07252 43.25070 48.85125 52.36161 52.86642 45.81205 43.04798 40.15267 35.06229 40.08202 46.20107 51.64186 59.24559 64.25176 66.67276 65.34706 51.80187 48.22689 49.60156 56.75519 65.13915 68.74555 69.55746 68.65439 63.16962 56.23683 51.28951 53.77912 58.97819 54.88474 56.27807 59.30740 57.44247 52.28398 43.83050 40.22722 44.32178 50.45532 54.63245 59.19807 59.75089 56.80926 47.77048 42.61466 36.52261 33.17003 31.33108 28.17958 32.15347 34.65005 38.08999 41.04282 41.83072 41.03788 37.56910 34.02883 32.94627 31.10685 30.36254 27.32863 27.44917 25.17308 26.21641 24.40558 24.73621 26.36137 26.46509 23.95915 24.74364 25.07954 23.77382 25.29753 24.20163 25.34640 25.23257 26.22036 25.68821 25.00375 23.48827 23.77240 24.67397 24.79321 25.60082
25.70314 25.51184 23.89498 24.82178 24.79699 23.14514 24.65685 25.53711 25.78737 25.59078 25.65084 26.28442 25.97224 24.28849 26.30247 25.89694 25.58101 24.08454 26.63348 25.41101 25.31655 26.26676 27.55671 27.73749 24.40883 26.88633 30.91608 32.00246 33.06646 34.99556 36.46600 33.65772 36.84735 34.19934 33.88995 37.88063 38.25718 37.11025 35.19957 32.22692 37.94116 44.03981 51.46584 56.99852 57.55009 55.77464 48.39608 44.75075 42.99655 40.81118 45.60168 49.67616 58.07689 64.21241 68.62068 64.73050 58.62886 53.11314 49.48806 62.05629 66.08479 72.07947 73.56589 69.70871 69.31813 59.64341 56.04931 55.97678 62.80875 65.59332 64.76486 65.05607 61.17706 55.17462 45.59514 43.48868 43.65396 54.99748 59.39039 61.90179 60.79704 57.27065 48.69744 40.20528 32.84516 30.50183 29.82041 30.54885 30.40426 36.63752 39.88958 42.44997 43.97358 42.52814 38.49248 36.36636 33.03974 30.58185 28.71430 26.98548 27.07259 28.45084 26.58559 25.15929 25.58459 27.98262 25.47593 24.78126 26.08791 26.21281 24.70583 26.77561 24.31118 25.19026 22.55998 25.13848 25.04802 23.93320 26.12566 25.47672 24.58229 27.20006 25.97148
25.38640 24.79271 26.87456 25.95003 25.82458 24.84810 24.66147 25.51896 24.98410 24.43214 25.87982 24.65769 26.05324 26.69168 24.42880 26.45936 25.04102 23.28203 27.17148 25.28357 26.04440 27.50392 25.58862 26.23229 27.89325 26.17824 29.54047 31.74699 33.76642 32.23048 35.72425 37.38268 39.96896 40.42868 37.73825 40.79488 39.77521 38.84928 37.00752 31.99718 37.31633 43.97639 49.86520 57.07763 60.92651 60.26747 55.39408 51.51167 45.96633 43.11421 43.36060 49.42270 58.79269 67.37516 72.88762 70.74906 63.72950 58.75173 55.62692 65.40084 71.57210 78.32448 78.41753 72.56765 66.06423 66.83999 62.72718 61.15647 67.77453 73.87258 72.04269 68.75687 60.55238 54.45753 50.86065 45.91689 52.54715 55.85360 61.19875 63.02972 59.56945 50.72584 46.69873 38.50477 34.29182 31.15750 29.38511 33.46594 32.58701 38.79696 40.61501 45.83765 45.30361 42.55503 40.31097 33.27743 31.31760 28.26324 25.11028 27.83801 25.80593 27.39630 25.70021 25.83926 23.80557 26.44035 25.34441 27.14306 26.01220 26.51997 26.09467 23.97021 24.12838 26.66991 24.65830 26.57811 25.85214 25.60151 26.69552 23.92124 25.05358 21.61616 25.58627
25.32815 25.32087 24.31438 25.37645 24.54727 27.57684 23.90328 25.40194 26.18686 25.37450 26.32905 24.93433 25.52751 24.22031 23.61974 26.97722 24.62703 23.66435 24.43153 26.27121 26.11599 26.44231 25.57635 26.46132 26.37846 26.25924 25.55853 28.68008 32.02375 32.61381 34.57002 38.34563 40.73580 39.79934 42.22557 44.58023 44.17180 43.55298 40.18632 38.61158 39.42386 40.56766 48.17121 55.98292 62.42669 63.81166 63.41059 59.80991 51.79285 48.18257 44.67790 47.24895 59.36121 66.46559 74.62254 76.04764 71.20717 68.26502 61.32623 70.27107 72.74606 79.31459 81.51447 78.89801 71.18001 77.59174 75.54439 72.21750 73.94221 76.59081 78.48490 74.91459 66.09166 61.42818 55.47972 53.54759 56.38506 59.82790 65.67024 62.96646 52.43934 47.85017 43.18137 38.39260 34.40077 34.92553 30.42822 35.48986 38.56588 41.08699 43.92684 47.10859 44.47247 43.08850 36.82724 32.69946 32.28132 28.37619 28.10555 31.19871 30.52806 27.67314 26.64656 26.49714 26.34735 25.61472 25.41309 26.24636 25.79965 24.54223 26.15596 25.46438 24.83991 23.94567 25.80300 26.07288 25.06695 25.08298 24.92672 25.45867 27.57180 25.23948 25.18228
25.59586 24.14421 25.63559 25.52130 25.97122 25.36759 25.29384 24.62885 26.67187 26.79869 25.39942 24.35542 26.46489 26.80181 26.66253 25.52741 23.69246 24.99220 25.22029 27.35085 27.68666 25.71279 29.28077 25.38670 28.62736 26.33995 27.38858 26.96429 28.02137 28.26736 32.18266 36.58691 37.07292 38.51698 41.22822 44.58132 46.48661 44.87119 46.05755 43.67765 40.38437 41.07289 49.40524 55.07154 62.90314 66.25465 69.15090 64.57740 60.41058 55.74968 49.58909 51.95655 55.70060 64.53405 73.45085 80.84424 76.22548 73.54477 70.24303 77.75573 81.14149 85.26387 87.28500 82.61149 80.97546 86.28261 82.28646 79.32078 76.56203 82.71029 83.56688 76.71776 66.76036 62.62673 59.54792 58.91738 62.55903 68.93160 68.94756 64.28089 57.45214 46.23655 37.90229 40.01746 37.93803 34.18455 37.40015 42.16458 42.57735 45.79485 48.83904 50.32004 47.02675 41.11380 35.91828 32.37490 33.70214 31.15210 29.25543 31.14616 29.75334 29.40230 26.87724 28.15235 28.21246 26.00587 25.17887 27.78460 26.75702 25.22595 25.42549 26.78914 26.98002 24.72109 23.40565 25.78519 22.80486 26.40962 26.43182 23.70402 23.63304 24.41761 23.97130
23.59166 25.05397 25.21295 26.82617 26.35459 26.82766 25.91558 25.57195 24.72964 25.22341 26.79412 24.88877 25.47826 26.01324 24.54546 25.97006 28.28206 24.35623 25.70771 26.40343 26.56115 26.61280 27.12722 28.59640 27.96981 29.27158 27.04009 27.00573 25.53224 30.14141 31.31250 34.18357 38.33568 41.42386 42.55024 46.66786 48.90992 50.49748 50.78980 47.90085 44.95876 41.72828 49.20895 56.17370 61.34757 70.14305 72.50611 69.34226 66.14988 65.20348 56.37627 55.52334 61.90182 67.99714 75.75158 85.03237 82.22134 78.11412 84.53998 85.42374 86.00481 91.58744 95.70918 89.83836 89.23489 88.39055 90.63446 88.51354 88.46965 91.05990 86.09116 79.44089 78.20673 72.85718 70.31572 67.38994 69.35717 69.73312 74.58376 65.34071 56.13382 48.86652 45.40603 46.36016 37.82698 40.00307 41.74447 45.93122 47.34738 50.82019 53.39722 49.66475 43.61089 38.26289 36.90674 35.61760 34.63386 33.49940 32.40701 33.54709 31.73619 31.48222 29.14322 28.33002 26.49292 27.82841 26.98935 25.14107 24.84295 24.49524 26.20809 23.73106 24.90170 25.96344 25.45227 23.64638 25.46349 26.74668 23.55852 23.76917 22.73827 25.11792 24.31934
26.15873 26.07287 27.28997 25.53982 25.35993 24.94216 25.48866 26.09756 25.32934 24.28387 25.15644 24.77328 24.69910 26.47706 24.25358 27.66421 25.51941 25.56225 25.40420 25.61421 23.20832 28.57358 30.22489 30.37568 29.54544 30.13858 29.31649 29.40954 29.31304 27.51694 30.19892 31.87099 34.91589 36.41409 42.72153 45.35077 50.37514 54.93646 58.28634 55.30909 50.55915 49.40133 48.21131 53.42733 62.49964 69.34105 75.49703 78.33394 74.95765 70.88971 61.73974 59.77759 67.43620 72.89682 78.40102 86.59462 92.14336 88.72635 88.57189 93.32876 97.51333 98.65324 98.88425 97.18672 97.83874 98.28919 101.13645 96.10221 98.34551 93.99729 90.62723 86.53097 82.23523 78.49874 75.77342 72.83603 77.58687 79.38361 75.46582 63.97646 54.61881 49.11113 47.42945 46.52982 40.36389 44.84919 48.89431 50.65269 56.22092 57.77796 53.42729 48.02230 41.55021 42.98339 39.31150 36.87740 37.71629 38.41409 34.08415 32.08547 31.04180 31.35642 27.61596 27.40890 28.27723 24.32049 28.06994 25.94611 26.04452 25.25223 24.69631 25.13817 23.82303 23.67825 25.73726 24.76486 24.17386 26.59639 25.99648 27.48237 25.50551 25.53227 25.50931
26.76403 25.68460 25.17627 27.68078 25.65888 23.33013 25.68580 24.97389 23.30589 23.75837 28.10486 25.67380 24.19759 25.09001 26.57232 28.19868 26.61440 28.84949 27.35109 25.53572 26.17927 26.88255 25.93079 28.30059 28.56883 30.97535 29.29693 32.09558 33.57732 31.90448 32.99678 33.52149 32.05434 35.38632 41.14045 47.07602 50.54323 57.60949 61.14328 61.95745 58.93839 56.49428 50.70927 52.06505 59.14738 69.12446 72.87728 81.25561 80.44353 76.81031 74.09497 70.33655 77.98518 80.56303 86.40992 89.20125 95.10817 95.80369 97.42277 98.10602 103.37578 104.38447 105.18793 105.24526 104.18909 102.00379 103.28118 103.84965 101.77572 99.21217 97.47085 93.98789 92.91048 88.56672 88.12490 85.84904 81.99966 81.81689 75.01709 64.60788 58.15488 57.58064 53.48246 44.21611 42.20559 46.51720 51.87173 58.88873 57.97796 59.58109 53.31060 50.31848 48.34818 45.95389 44.58750 39.70287 39.70992 38.70643 35.32946 33.92479 34.43095 32.09221 30.24848 27.97466 28.57471 26.47918 27.45581 25.62561 25.29485 25.68282 24.07231 25.25092 24.48065 28.52913 26.44078 24.95137 26.23030 25.79267 24.57876 27.70350 24.73381 24.53332 24.17009
24.20657 24.99088 25.54390 23.69446 23.93988 26.14528 24.54178 25.74250 25.05332 25.46818 24.68586 26.47184 23.59265 27.02364 24.30404 25.72339 26.83140 27.78371 27.92670 27.57578 28.43070 28.00667 27.59593 28.29735 27.59795 29.25044 30.63575 31.31223 32.48581 35.97867 37.18459 36.17265 33.61587 33.87678 36.49580 40.62735 48.20769 57.62947 59.74046 64.93616 68.68488 65.60197 63.73113 57.54401 56.93371 64.97116 73.18968 83.29102 86.63099 85.01363 83.15466 78.91093 85.70974 84.37881 95.92947 98.72994 100.40422 101.21224 102.60913 103.58423 106.52896 109.59781 108.65640 110.47559 109.42120 107.40957 106.73922 105.12699 107.27085 102.71459 104.20491 100.69508 98.23518 97.73962 95.76494 87.30516 89.05115 86.14054 76.97520 69.75237 65.96145 60.27428 56.49221 46.91829 47.22066 57.14428 66.55044 65.95520 66.51120 61.87685 58.50690 53.83988 52.03543 50.58784 50.80550 43.86145 42.91789 40.21131 36.91479 33.50070 33.34126 29.29384 30.75275 29.52959 29.01062 26.44236 25.85394 24.26188 25.52960 26.48590 25.58187 25.36263 24.87389 26.09128 23.73764 24.35026 25.77029 24.11270 25.00259 24.95760 25.25163 23.91527 25.64834
26.34236 25.57369 24.09375 23.65661 24.85126 23.28281 21.84469 26.32296 25.28718 25.12096 24.16567 23.96891 26.75529 25.03396 26.10835 26.63901 28.12939 26.02790 28.21431 28.09316 28.26588 28.87637 30.07116 30.43599 28.05000 28.10244 30.91959 35.69220 36.40354 36.99109 37.46611 39.05842 41.72974 37.51981 37.77670 38.22587 48.29876 55.40687 62.26883 71.38742 73.03835 74.18304 72.44759 69.22408 64.19141 64.05290 73.78503 84.03462 87.88314 88.95022 86.15283 86.59465 91.35213 96.97581 98.96525 103.26334 104.46653 107.08954 107.06203 109.00104 109.50927 107.26547 107.87132 109.76716 111.24857 108.57741 108.29073 109.39534 109.76313 107.91418 107.47327 104.78451 104.26500 102.74558 103.83569 100.08541 94.82117 87.83720 83.00238 77.31578 74.09533 63.58697 56.15570 49.85971 55.39158 67.21199 70.48450 72.65646 70.55761 63.55081 62.71211 57.45522 54.79305 55.73557 50.49434 45.00070 41.57739 36.58762 33.90016 33.56667 30.93265 29.73568 26.41856 25.08751 23.06945 25.06378 26.03177 25.37289 24.72452 26.26395 28.13398 25.80716 25.30431 26.35635 26.94574 25.77075 24.65239 26.09940 25.80338 25.34428 25.24506 24.06849 25.20502
24.03013 25.85203 26.25427 24.40672 24.65316 23.23925 25.99087 24.75349 26.30631 23.96253 25.55058 25.86887 24.97440 24.48202 25.81921 24.70777 27.32993 27.19466 29.58692 30.14983 30.86001 30.93892 31.39708 32.24432 29.98253 29.98160 29.97601 33.69097 36.43373 38.51270 43.63807 43.72062 44.28561 43.43046 40.39873 37.81458 45.74198 52.41952 57.90296 67.72883 75.13091 77.85520 75.75653 74.90045 72.53992 74.02060 72.77782 81.28208 89.48166 91.25611 94.40479 97.01785 99.64133 100.34426 103.74584 107.00788 108.60019 105.57530 108.26390 109.90799 107.53060 108.05546 107.67849 106.58377 110.06831 108.70446 107.05089 109.23510 107.06627 107.73086 107.30780 108.91440 108.12439 108.19917 106.01615 105.32769 98.82897 92.20590 91.04394 81.46669 76.16265 65.82133 62.68745 64.43779 64.11580 68.07862 76.74556 73.99731 73.86233 65.85883 58.18903 57.15238 52.92281 51.70222 47.28313 42.96390 40.11030 37.14878 33.95226 29.51941 27.09777 25.42754 26.36421 26.37589 28.23439 25.79963 25.27979 27.01104 25.79587 27.01403 26.50286 25.96874 26.64397 25.77490 25.48645 27.71627 26.66529 25.13610 23.35137 26.40511 26.11548 26.36265 25.46274
26.40439 25.21933 26.26551 27.05048 25.50961 24.33176 23.77183 23.16956 25.12957 26.58405 23.98789 25.60694 24.34328 26.32346 26.26595 24.95776 25.39225 26.01598 27.45972 29.14143 31.07420 31.71856 34.21926 35.83651 35.68230 34.80150 32.80073 31.49538 33.28239 37.92280 40.91332 44.42474 48.78020 49.92743 47.59114 46.44190 42.38751 50.29534 58.63542 64.39557 71.96248 81.66160 83.73013 85.43899 79.68040 81.54691 82.78592 83.92984 93.44674 98.70790 101.07777 101.93416 102.73028 106.15176 107.82489 107.70722 109.61660 107.33340 107.88062 105.67342 107.88183 106.38553 106.44452 105.20340 105.54760 107.32898 105.51746 107.08456 109.39954 109.14634 106.85853 108.11315 110.00667 109.26181 109.27030 106.30736 105.35382 96.45008 94.96521 87.84190 76.72904 70.23106 72.82085 74.95707 75.55365 78.12958 81.45823 77.98785 73.62924 66.26542 59.09374 54.82011 49.52361 43.42766 39.42908 37.47242 37.53655 33.49210 31.12252 28.85500 28.75306 27.11192 29.57561 28.21962 27.56173 26.77296 28.78405 27.73201 26.36963 25.43790 24.34868 25.11004 26.08660 24.59309 26.10488 25.41926 26.45264 24.54723 23.41397 23.83811 25.06532 26.56230 24.20085
25.84616 26.88633 26.14726 25.26475 25.08339 25.49802 25.53749 26.46352 24.41668 25.24329 28.03328 27.54428 25.80588 24.81983 27.05971 26.74099 26.11750 28.29472 30.98526 29.56153 31.28234 32.87205 37.47598 39.82295 40.06915 38.75890 38.76931 36.71452 39.12517 37.28163 40.02142 45.70072 51.39166 55.45758 52.62664 49.50920 50.27783 49.70447 52.19061 59.08314 70.75365 81.50448 86.12100 87.74010 89.44887 84.90631 90.20083 95.81818 98.62054 100.47224 104.52754 106.65639 107.15184 108.65812 106.24044 106.83821 107.99393 105.30594 103.75941 105.09782 104.89989 105.85855 105.97839 106.02396 103.39133 108.76236 104.95859 104.25023 106.24488 105.97623 106.17341 107.18549 106.87948 106.29582 109.85255 109.25263 106.01621 102.92509 98.61769 88.83260 79.85669 79.77801 82.79678 83.49298 82.60562 85.78453 82.86865 74.47749 68.97039 66.05687 58.45021 53.05283 45.81222 40.45825 36.72999 34.69048 33.62469 31.38891 28.85450 28.41318 29.47629 30.33405 31.05969 30.82227 28.36085 26.52505 26.30458 26.32839 26.04869 25.52303 24.78919 26.29490 24.42783 24.95740 26.87784 25.16998 25.17333 27.20538 25.36911 25.25350 25.00930 24.34628 25.15692
27.13060 25.56363 24.56667 24.85584 25.95390 23.47006 25.73063 23.83736 24.45583 26.83099 24.41392 25.90760 25.70497 26.31967 26.47413 26.02166 27.52842 26.25735 29.18795 31.35449 30.98316 32.75328 38.01926 40.65995 42.00188 41.34114 44.58765 44.30758 45.52826 43.50696 44.74815 45.26704 51.99055 57.58791 61.50740 61.92610 56.85472 56.57545 55.33812 57.26477 65.96854 78.67075 84.89616 93.28329 96.05744 97.48819 99.74951 100.29055 103.16934 106.87887 107.70060 107.96686 106.20634 106.74765 105.92016 105.81232 103.51502 102.44801 103.99368 103.36876 103.06942 103.11166 101.51835 103.22651 102.34876 102.08512 103.38647 102.65009 104.09726 105.02592 104.13347 106.19616 105.70947 106.34545 107.54205 107.96916 108.30189 107.04567 99.51253 98.32024 92.22424 90.85277 91.98219 94.09495 93.31568 89.67117 81.66396 74.86180 68.51590 62.24715 56.33673 52.38605 48.31298 41.73818 38.46969 34.94524 33.13079 32.41950 30.42887 31.59244 32.11442 33.55015 34.09676 32.22813 30.00721 28.38933 28.71230 27.58162 28.00293 28.20320 28.42809 28.35776 23.32757 27.05713 25.44662 25.28266 24.70343 27.66652 27.18522 24.82345 24.63766 23.65501 25.81500
24.76254 24.41148 24.45998 24.58073 24.01300 24.50598 27.32125 25.45280 24.60490 25.28418 25.53038 27.21116 24.16893 25.68943 25.36762 26.64221 27.80060 27.99531 28.15208 31.28276 33.69089 33.41947 37.87842 41.54137 42.48689 45.91398 48.22643 47.52365 49.22206 48.51854 52.09429 53.91061 51.90315 59.80525 63.21698 64.66729 64.46670 63.36224 62.08082 59.85146 62.73405 76.95708 85.89800 95.20794 98.51260 100.58157 105.55265 106.47531 108.43714 108.16457 107.49228 106.86158 105.25599 105.11001 102.70782 103.65884 103.34742 101.51151 102.32636 102.71907 102.34939 100.73344 98.97201 101.16393 102.76647 101.26761 100.78604 100.58110 102.80098 101.58544 102.67141 104.20202 104.64333 104.97338 106.33908 106.06086 106.42098 107.22609 105.80654 103.94968 97.60676 96.51633 98.90442 98.52662 95.19826 89.95068 84.70607 74.96263 68.02447 61.95989 54.05272 51.85433 48.32085 41.32676 35.43373 33.39136 31.59493 33.87948 34.53757 34.73691 35.47949 37.02528 34.03626 32.89711 29.08396 31.22773 30.86872 29.66374 29.91452 29.70323 28.11386 28.23407 26.08051 25.41613 24.83669 26.58278 26.39041 24.81341 24.77600 25.16143 26.82549 25.41602 26.34436
24.37472 26.78760 25.72740 24.74653 27.31737 26.69634 27.18452 26.25038 24.71666 27.42602 23.62354 25.32333 27.06160 23.59728 26.64816 25.91888 26.34821 27.32325 30.23404 31.14930 32.50632 33.34657 34.41358 38.42113 39.29375 42.08132 47.49060 51.25635 52.38141 54.72954 55.37715 57.62077 57.31177 62.29014 66.52048 71.40652 73.61597 70.74647 72.41208 71.51633 70.03427 73.48623 83.94043 93.58015 99.58341 107.20741 106.93725 109.62858 108.75531 107.04692 105.70454 106.26915 103.28567 103.19132 102.41385 101.89259 102.68388 100.78305 99.26806 101.85506 102.19795 100.97033 99.68290 98.87314 99.25934 101.46784 102.64668 102.47150 102.09823 101.03775 102.44220 102.72815 101.69098 103.98612 105.28154 104.82745 107.66463 106.78910 109.78352 106.43405 103.95336 101.69281 105.59778 102.94971 96.65273 92.03770 81.97092 75.91791 68.12406 61.93874 47.88174 45.85429 43.73667 38.95017 37.75636 40.85892 40.42649 41.42559 40.58904 40.14733 39.12541 37.72623 36.94411 31.00029 33.65099 32.35647 32.77336 33.16526 30.79541 30.80032 28.69806 26.29901 26.23479 24.53558 24.28290 25.21235 22.72827 26.35722 24.12934 23.87465 26.58415 25.83375 25.19013
24.91544 24.88364 25.12651 24.68786 24.21088 26.16535 24.32638 26.04179 24.90796 23.66193 24.54858 25.21097 24.75436 25.70901 27.56014 25.61040 26.51572 27.29765 28.15411 27.42860 29.52831 30.96411 32.73150 34.62987 37.74411 39.08911 46.16779 48.18459 52.23125 55.26408 59.71836 61.05534 64.44812 67.04524 71.45748 74.19490 80.23414 81.70915 82.26107 76.81143 77.69080 75.54570 81.43829 92.23900 102.01776 106.72840 109.53155 108.19082 109.04265 104.79690 103.08668 102.08863 103.16982 102.41968 100.36041 101.27335 101.49533 99.04581 100.17327 99.51291 100.46947 101.05833 96.36643 98.81148 99.98268 98.19157 97.88214 98.07649 99.82273 100.81180 100.69235 97.33748 101.59443 103.42286 102.47596 103.49534 104.54252 107.03791 108.85166 108.91412 108.27497 109.93083 104.88586 101.75419 96.02171 86.34339 78.47531 71.67866 60.01477 53.59217 50.56969 40.33139 42.24910 41.19941 40.81673 43.39467 42.10851 48.29667 47.70121 43.55333 40.91756 40.22091 36.77939 36.01921 36.99983 35.62081 35.49588 33.11580 30.41469 27.87018 25.75950 24.60854 25.02358 26.07108 25.99183 25.77869 25.73085 25.63198 26.49460 23.95332 23.91649 24.64226 24.66994
25.21770 24.80751 23.79824 25.23579 25.05847 24.56559 25.19530 25.33356 24.82199 26.48540 23.62467 23.10559 25.35266 25.79304 26.16852 26.38662 24.92677 25.69734 24.07713 27.34485 27.85446 28.15650 30.44305 30.86033 32.61949 34.02472 40.73438 42.14115 46.45168 52.46828 54.88899 62.34564 68.26560 71.93890 74.87846 80.86585 84.12751 85.66866 86.02642 86.50879 90.26570 86.20351 93.88905 96.11403 103.30827 108.18663 107.31727 104.90188 106.43028 104.51000 106.10776 101.81693 102.04674 102.40742 101.22410 100.91410 99.45126 98.01567 98.64178 98.26085 98.15672 98.69400 97.38984 99.69410 98.24244 96.82119 98.64640 98.65791 98.80078 101.87776 99.40964 99.82550 102.61121 100.88147 100.62267 103.77429 103.21098 105.29874 107.45913 108.89267 110.90205 108.79246 106.14295 101.63650 91.11233 82.86889 77.95857 67.65745 61.59897 55.77227 52.84113 48.23587 45.52580 46.00283 50.58012 52.37588 55.04581 53.87583 54.52722 50.55158 47.06453 43.17655 42.16900 41.80148 41.39882 38.02788 34.98737 32.48895 30.23071 27.57203 26.44194 27.15739 25.27063 24.60938 24.27102 23.77056 24.37107 25.20052 24.44329 25.92024 25.28889 25.08341 25.42138
25.06206 25.82725 23.08233 23.21428 27.28912 25.15210 24.62707 26.20207 26.58559 26.32512 25.59463 24.21755 26.37429 24.68900 26.99805 27.06371 28.55936 26.50421 26.87777 26.63630 26.68937 26.02066 27.95040 28.80172 30.24744 31.35509 34.06881 38.49067 41.45511 43.90777 50.66077 54.31407 62.05536 63.57067 72.11273 76.68741 82.44260 85.94072 93.96804 93.69613 93.75526 96.40565 100.44348 103.51146 105.67397 107.20831 108.16865 107.12027 105.57636 103.70190 103.10792 100.47153 100.11178 101.14461 99.11199 99.76144 95.99594 97.52278 98.11944 97.64175 96.71962 99.09919 99.07368 98.89155 97.14434 96.89583 98.95699 98.11772 98.31632 97.45017 98.83364 98.74075 98.60905 101.04727 99.82287 101.97312 102.22283 103.24188 105.80235 105.31628 105.76918 107.83020 106.55830 101.19687 95.74339 80.83131 73.54879 65.20437 62.76770 64.02945 61.88347 56.25581 49.58903 52.94285 56.55295 60.00753 60.53596 63.62067 59.00185 51.76536 47.69473 47.16272 45.16839 45.07667 40.69399 38.38136 34.24907 31.65743 27.52154 27.25843 27.38371 25.53018 25.07282 25.77123 26.10336 26.90040 25.92153 26.83530 25.31775 26.87879 25.23196 24.67918 24.12666
26.44108 25.68709 25.15789 26.60098 24.67517 25.41087 26.13446 24.46004 26.85429 26.84219 27.72920 23.30829 25.78706 26.32567 25.20678 26.83704 28.88574 27.01847 28.61897 28.40457 27.08678 27.30301 30.62916 26.43305 30.14450 31.00963 31.75011 38.19322 35.60059 40.75245 42.24822 48.12637 52.34274 58.51174 61.39978 72.19174 72.71244 83.67548 92.05978 96.48356 99.82826 103.74678 106.50894 105.68322 108.38200 108.10487 105.05193 103.51608 102.63681 100.41363 98.30588 99.81054 98.36761 97.81330 98.99337 98.70008 97.29157 96.84093 97.42315 98.25200 95.49812 99.32090 97.38739 96.74275 96.03627 95.26029 97.03711 96.13329 97.47301 97.36609 96.52045 97.98746 99.22762 100.26530 98.82899 100.66356 100.87505 101.93293 102.90864 105.32876 106.39150 107.70537 107.86271 103.44042 97.17023 84.95217 77.26612 72.70774 71.62693 71.45314 63.81436 61.09540 56.13321 60.35082 61.48477 66.36145 65.28600 61.48012 61.23630 56.77133 53.36110 49.03882 46.59706 43.83262 39.86763 35.78884 32.49279 32.11904 27.48517 26.34406 26.39657 25.28392 27.11654 25.93168 28.65867 25.98239 25.20014 25.26368 24.69890 26.35217 23.00230 26.92164 25.76175
26.47349 24.73723 25.76487 25.26307 24.65932 24.63760 25.34070 24.39743 25.61756 23.64837 27.36212 26.32238 26.31153 27.58225 26.96348 27.43303 28.61415 29.94677 29.14478 28.09729 29.44266 31.58563 30.38724 29.06995 29.11022 29.99232 31.04970 30.95733 35.56243 37.02646 40.48349 41.11266 45.00576 49.34424 53.58260 58.06236 68.02425 73.97837 86.29150 94.47261 96.99006 107.59618 105.98390 109.11056 108.73479 107.03708 105.99801 103.63247 101.17539 100.70500 102.11152 100.63983 98.79157 97.56229 95.73930 96.73051 97.71425 98.39257 97.61475 96.49973 98.88505 98.01001 98.26612 99.67944 97.56618 95.72930 95.00201 98.27047 96.54721 97.28200 98.19711 98.00521 96.50143 98.40027 97.88466 99.86136 100.56220 102.42084 100.78351 104.96460 105.10523 106.14989 107.08346 102.59601 99.11097 90.27151 86.17582 86.20914 83.45169 82.39509 70.69896 67.17379 64.61392 68.12280 69.86796 71.24213 70.99484 65.33474 61.84682 58.20391 56.88540 50.35611 44.52517 39.68242 36.89060 33.57899 32.78294 30.89212 27.35639 25.53394 26.37104 28.42099 25.82006 26.54319 26.72421 29.49894 27.74567 26.14944 24.11033 26.02795 25.80248 25.34168 23.98723
25.00615 25.03543 25.77668 24.77581 26.95653 25.78302 25.21053 24.62667 25.53401 26.24484 26.52452 26.15564 26.21236 29.14238 29.27784 28.46628 29.30373 32.04315 31.87709 31.34122 33.32812 32.62204 33.34661 35.28803 33.70179 32.11223 31.72747 30.87666 33.08183 32.85444 35.73376 38.70245 38.47996 42.34315 45.40496 49.13500 58.97890 65.51082 74.67527 86.68607 100.58926 104.86681 107.34387 108.32294 109.13077 106.36320 103.22811 103.91733 99.86660 100.42157 97.81457 99.86579 100.11668 97.93355 96.86185 99.14593 95.97797 98.25572 96.81966 97.21788 98.41506 98.56921 97.69404 96.56113 99.45661 96.17928 96.06728 98.32243 96.50772 98.09755 96.92651 98.01309 97.14797 98.44830 99.65597 97.76712 97.58218 100.43878 100.96824 103.55368 104.14616 105.29928 110.33400 105.76598 103.53087 101.33649 91.60860 91.27861 89.76522 81.98201 78.70286 74.33756 74.86742 75.13648 73.27194 68.67135 65.49169 63.28439 61.46211 55.63136 53.72538 45.80448 39.87606 37.40536 34.16619 31.44573 30.07805 24.77426 26.10103 27.33802 27.26942 28.58533 29.85677 28.01707 26.70180 27.09559 25.94768 25.04271 24.44842 24.75204 24.56653 25.83059 25.72251
24.63393 26.83889 26.81812 25.67876 24.44239 26.10883 25.93852 27.17607 25.86779 26.86331 25.91149 25.46634 27.96360 28.70975 30.25262 29.52206 34.30371 32.17818 35.86196 36.16848 37.23701 34.96713 35.11663 38.58063 38.42863 34.65241 34.33294 36.72346 35.23303 35.11927 38.22749 41.28056 43.33563 47.72380 50.30739 55.48951 55.69379 67.68070 72.68305 88.85748 98.79927 106.50116 106.94458 107.85810 106.24157 104.46113 103.30684 100.00252 101.14128 99.44441 99.25197 97.96631 97.64342 97.13072 98.35616 97.21036 96.76530 96.55738 97.32496 95.46774 94.70745 96.91031 98.25071 97.58855 98.14426 98.62314 97.55632 98.96415 98.22700 97.30044 96.47094 97.91824 97.48776 96.82046 97.06276 98.93276 98.89536 96.83554 100.69074 101.00485 105.11477 104.79123 106.80297 107.24638 105.70718 102.61045 102.82806 98.61435 96.63392 89.37874 81.24304 80.88976 79.75546 76.91809 70.18157 65.29337 59.01733 53.93483 52.12703 48.83583 45.42626 41.31672 38.26364 33.32647 31.07274 29.27463 27.27940 28.40363 27.13813 28.34050 28.60575 29.44103 29.42153 28.06222 25.89497 26.95666 26.40055 24.11229 26.37667 25.39497 27.05721 25.99684 24.33132
25.93375 25.78093 25.05254 25.58265 25.68472 28.59536 25.20534 25.99491 25.84358 26.92934 27.92990 25.09102 26.20350 28.07104 31.32691 30.51544 32.36144 34.62556 35.63197 37.36356 38.25349 40.21406 39.28870 41.17105 41.14304 42.65458 40.07815 41.99896 40.23072 36.87156 40.71392 44.15995 49.65912 55.02851 52.97165 62.14270 63.98379 67.41785 73.25883 88.01325 94.88673 105.64569 107.44168 109.20511 105.36608 104.12986 101.99555 100.78232 100.85371 97.76433 99.57983 97.56442 95.78880 95.98868 96.94742 96.71118 97.11705 97.69346 96.78207 97.10291 97.63747 97.66846 97.95994 97.68677 97.90872 97.32816 96.31295 96.31888 97.22046 97.33395 96.65128 98.49826 97.55498 99.04423 96.37372 98.27226 98.99782 98.47816 99.21065 101.11517 102.16015 105.65462 105.45290 106.60876 108.56768 108.90528 107.46068 105.77773 98.99314 93.39984 86.49733 85.39886 79.47784 72.73688 66.07982 60.29967 52.53612 48.22161 44.75461 42.85194 41.42518 36.82301 34.54912 28.37074 28.66397 27.80602 29.87354 31.68549 28.65525 29.74789 32.02642 30.41081 30.12629 29.85259 27.37725 25.66856 24.90945 25.17789 25.89037 24.80947 26.41186 26.64954 24.23827
24.75522 24.87452 23.85065 24.50034 24.72039 25.93040 25.01423 25.65884 24.91309 24.58986 25.85026 26.35390 26.92018 28.98165 28.90458 28.91517 29.92030 30.22840 32.14778 34.51422 36.87185 40.02023 41.77497 41.67133 44.05622 48.01293 46.04958 49.10841 44.10205 42.85399 45.13009 50.19472 56.52097 57.85029 66.84478 68.44858 73.49196 78.57053 86.56840 91.17720 99.55110 104.29205 106.62479 107.11159 103.33761 103.08730 101.39690 101.70529 100.20618 97.30330 97.75270 97.75431 98.06302 97.25093 99.51947 96.41598 96.16034 96.46853 97.16586 98.12943 96.93329 96.06218 95.86302 97.06177 97.16732 98.25250 98.68900 97.66768 97.28956 93.32696 97.50148 96.04218 98.38462 97.45619 97.13855 98.90919 97.49260 100.21406 100.09642 101.48865 100.55218 102.06839 104.65830 105.83506 105.39091 107.38928 109.82761 103.09172 100.14411 93.13063 87.42394 84.32253 73.77084 62.52851 60.77603 53.27838 48.20561 43.87280 40.02333 39.54204 35.84707 34.91298 31.66104 31.19530 30.32711 31.47209 30.62399 33.52893 32.35859 33.05255 32.97436 30.33859 28.35622 29.07721 27.04985 28.45876 26.39445 25.27248 26.38483 25.92527 27.17912 26.54350 25.97717
25.15563 26.20849 24.80824 24.46565 23.99190 27.12962 24.91487 26.00586 28.07370 24.34431 27.44328 26.58179 27.32328 26.88725 26.82711 29.85201 28.82737 30.20520 27.22266 31.21248 36.72314 37.94659 40.80256 41.09758 46.14833 48.20391 50.70497 52.49942 54.16419 52.34787 51.16771 53.56884 57.11488 67.41789 72.35089 77.87308 80.34849 83.88437 88.59026 99.70367 103.65150 107.32567 109.96442 105.73459 102.79027 100.27879 99.78360 99.69932 99.41898 98.24356 97.70978 94.44043 96.87628 97.39849 96.45572 96.45567 96.61253 96.78881 96.77518 97.86855 97.52081 98.66370 96.30685 99.15973 97.20006 99.44249 96.02314 97.42163 97.40140 97.44349 97.48789 98.01330 98.01636 96.73721 96.84032 97.34186 97.72483 100.22637 96.44280 99.50522 100.55393 104.14470 101.92241 106.06508 106.28642 107.63245 107.43327 105.66395 100.08402 91.34556 86.25848 76.04356 67.40292 63.10123 56.40378 58.35588 52.70367 47.64211 46.80169 43.94364 36.50877 36.07881 33.71963 35.72800 33.67617 32.48925 33.99147 34.50035 32.86931 33.77127 32.87007 31.76090 29.26591 28.23477 26.88095 25.19515 26.94163 26.60690 24.99168 26.53915 24.55007 24.84426 25.90584
24.08599 25.38354 24.76016 24.07162 26.70595 25.81492 25.39867 22.79355 25.18230 26.99737 25.25683 27.88329 23.96906 25.07640 26.56627 26.87792 27.85132 28.44509 30.07903 32.41724 31.36537 36.84088 36.31778 40.57722 48.81339 54.67757 56.76168 60.34766 59.24886 60.31372 57.84928 60.63960 60.53710 70.48810 77.52715 85.74262 88.13801 91.52597 98.29424 101.25205 106.75462 106.78880 105.19252 103.88603 102.55329 101.46078 101.15864 99.65270 97.46382 98.13514 97.93856 97.63912 98.50748 95.23381 96.78087 95.78445 97.44786 97.05494 96.57056 96.67440 96.51679 97.58867 97.98173 97.73637 95.04552 96.18278 98.45629 98.67771 97.12960 95.61990 96.86170 97.23829 95.37928 96.31104 97.98646 96.72816 97.81310 98.53474 98.02719 99.69496 101.55464 100.33100 103.39956 105.98554 105.56834 108.91951 107.99197 105.30022 101.04146 93.50943 85.72148 78.03554 69.56682 69.74234 67.48598 64.15048 58.36251 56.08212 49.02172 43.31934 39.26741 38.01368 38.51256 38.96851 37.69640 34.97732 34.55543 34.26089 32.44337 30.70627 29.85760 29.79105 27.75293 29.64717 26.80214 25.04317 27.07312 25.86675 23.53454 25.17395 25.83160 25.95307 24.25868
24.28475 24.74476 24.52445 26.45151 24.69415 25.06519 25.28088 25.63491 25.89619 24.52826 26.52723 26.23251 26.48530 25.22294 26.15873 26.56273 26.63907 29.52067 29.08062 33.09335 31.03624 34.18783 40.41534 44.08875 47.62812 55.20577 57.93602 62.57288 63.25148 68.43052 65.63998 67.46276 71.78507 71.54548 79.12561 88.78275 94.28014 99.52448 103.55590 106.45891 107.12854 106.92712 106.45475 104.03984 101.26890 101.98494 100.61138 99.89006 99.67121 98.11442 98.03315 99.13515 97.86103 97.44643 96.26923 97.62069 97.05117 96.27510 97.73286 96.92089 97.68622 96.80728 94.97552 98.27946 96.44403 97.77479 96.28053 97.63216 99.15037 96.67335 97.58842 97.14748 97.44572 96.34827 96.73402 95.33679 98.49402 98.22911 100.61040 98.96439 100.59439 97.92750 102.49990 102.41059 106.87432 107.12855 108.12858 106.29146 100.73980 94.19031 87.19498 81.84339 80.33063 80.20109 77.21211 71.00937 63.41124 54.56469 48.60268 45.84252 45.84192 43.70752 43.62463 40.80485 39.51439 36.72071 36.30099 33.74372 30.72914 28.29860 30.41963 28.21654 28.59084 28.56584 26.74356 26.80804 26.06631 25.92922 24.86158 23.23398 24.82087 25.73936 26.04665
26.45754 24.29411 25.35962 25.97503 25.76101 26.49265 26.10720 26.65456 25.11248 24.64751 25.67791 25.97091 26.54686 25.98611 27.65842 28.96763 29.28433 29.35603 34.58241 33.65722 36.30233 37.61241 45.33200 46.70845 49.98158 58.15664 58.39740 62.17930 64.21983 65.12553 67.78177 72.04185 72.14925 78.35837 84.81584 86.85612 97.12151 101.30362 104.65260 108.13154 107.73758 106.17130 106.27660 104.56976 104.11529 100.07175 99.96347 100.05047 97.86416 97.95115 99.02102 96.19332 98.77346 96.27811 96.53470 97.14774 98.05964 97.12272 96.16968 97.00495 98.48039 96.26874 97.78799 98.28619 96.06502 95.62839 96.94496 96.51170 96.00663 95.68474 94.77507 93.90620 97.24558 96.24175 97.52393 96.68540 97.11473 96.05917 100.05181 96.60173 100.14679 99.42276 101.82123 102.01747 105.25662 106.06376 106.52631 106.45565 104.11247 98.40724 93.30095 88.60911 86.31304 85.89288 77.78903 72.21997 63.51949 54.61073 53.17008 50.02930 50.17230 47.97607 44.92031 43.00536 37.92652 36.63789 33.32439 31.87522 31.07555 28.85523 26.43618 26.92997 26.53810 26.75919 25.84428 23.73843 24.61674 27.06245 25.99077 24.25828 25.49023 24.01311 26.60587
25.73551 26.29983 24.58575 26.95045 24.56701 25.58512 25.16614 24.59271 24.16204 24.88431 26.20709 25.10108 26.10178 27.78001 26.40610 29.71033 29.23102 30.87034 33.97607 39.06774 38.66564 42.37201 43.75202 48.04207 50.41035 54.25089 55.63991 57.27396 59.55551 59.42710 61.79627 69.46827 72.73091 73.44392 78.65139 86.89656 93.12514 102.89382 107.68956 107.98847 106.28809 107.34947 105.51315 101.30651 102.53742 101.69574 100.64555 100.68471 96.84792 95.35522 97.55699 95.11041 99.19689 96.31402 97.68614 97.22241 98.54884 96.60856 95.59191 99.92275 95.35736 96.17732 97.44816 97.17367 98.61138 96.64986 96.04648 96.99553 98.90928 96.01498 95.42680 95.98914 95.46691 96.69347 96.70083 97.83503 97.69127 96.06346 98.14092 97.83145 99.61667 100.75123 100.97970 103.03107 106.74512 105.13672 107.73905 108.13232 106.14983 103.05808 99.93507 93.71162 90.76930 82.02202 74.76366 70.77133 65.59907 60.60838 56.72962 53.30082 52.55564 46.79820 45.33096 43.52827 38.18128 35.84722 35.40726 33.71302 31.97692 30.02562 28.44099 29.35190 26.55796 27.07751 26.28796 28.56266 25.78859 24.23655 23.96254 24.73835 25.22405 24.44724 25.05887
24.00440 26.01940 25.46064 25.87349 24.68604 26.55107 24.73908 23.99468 26.89106 27.16789 26.43546 27.47554 26.95797 27.74940 28.50204 29.81432 32.20703 34.57289 34.48307 37.64570 41.04468 44.22746 45.63092 48.80965 46.56094 49.23675 48.02262 48.73190 49.25465 52.89983 52.19498 57.12562 58.52842 65.40623 77.74251 83.17595 92.06546 95.82781 104.78318 107.21214 107.30719 104.27089 104.35069 103.13025 99.43400 99.66174 98.54062 97.97579 99.48875 96.78421 96.33451 98.13686 96.48408 99.11529 97.26320 98.09709 97.05934 98.27902 97.05413 95.69643 96.12241 97.98341 95.94232 97.76926 97.57358 97.53784 95.61390 93.54033 96.69434 94.00277 96.36978 95.39960 96.09094 93.25955 96.51383 96.31708 97.08018 97.09152 97.84334 96.98286 99.13866 98.11606 102.85338 101.36634 104.55658 103.42699 108.40441 110.26413 108.66817 104.85750 97.23173 92.99419 85.15127 80.59122 71.96823 68.51323 62.23416 58.23003 52.56534 49.61334 47.07733 45.54707 40.34500 40.26048 38.69739 35.06056 34.37266 35.66617 31.89697 29.84339 29.90904 27.37734 28.86830 26.94481 27.33554 25.40394 27.09311 26.44296 24.62400 26.54870 25.13977 25.03109 26.18262
25.26717 25.72946 25.05610 24.15729 26.48248 25.20983 25.17023 26.81137 24.96168 25.63031 27.26895 26.49970 26.88103 27.16062 28.48971 33.09399 34.48521 36.57069 36.62417 37.68080 38.07916 44.32118 44.10800 42.31416 41.32550 41.12820 39.12328 37.16057 42.22987 43.06953 45.64607 53.07416 58.64278 61.68583 76.84829 84.59917 91.23165 99.52678 107.20385 107.23420 109.20558 106.82410 105.66564 103.03150 102.01536 101.75419 99.22494 100.13558 97.53517 97.52765 96.32020 98.46946 96.91598 97.00950 96.67881 96.71000 96.58357 96.22163 97.64101 98.34544 96.82041 94.51882 95.88488 97.09396 96.46922 96.68781 96.93670 94.67880 92.67072 92.47973 93.15122 92.94373 92.21454 94.74262 94.94196 96.95239 97.39160 97.08142 96.48415 97.62195 99.16254 100.88693 100.25373 102.43879 105.19804 106.30718 108.16715 107.95974 106.33327 103.23809 100.91253 93.37218 86.97622 76.77283 71.90181 64.71699 57.98941 57.59104 51.29617 47.52081 43.67143 38.87728 36.96320 36.53712 33.50793 33.16883 31.82591 32.46023 31.42339 29.80844 28.72840 27.95671 25.79632 25.68954 27.31475 26.08793 25.17374 25.24595 26.75281 25.94604 26.62968 25.77689 27.81722
23.98375 25.11793 27.84874 27.13155 26.08580 23.83302 27.07173 25.24721 25.47921 25.95075 26.89637 27.03193 28.38952 30.65149 31.71452 32.45953 33.02105 33.20012 34.92526 36.49043 36.33189 38.61727 38.60442 39.74802 32.97674 36.28771 38.16242 39.05660 42.45813 48.35655 51.90584 55.55204 61.11195 65.36611 75.09748 84.42877 91.35316 100.44692 105.39742 109.05744 108.57104 106.80266 106.34551 102.41081 99.49566 100.81013 100.27680 98.81373 98.71395 98.77362 95.78585 97.09719 98.00195 96.24993 98.97748 96.33258 97.92870 95.66605 95.39626 98.14096 96.83497 96.86205 96.27032 94.40078 96.38902 98.51478 94.32909 95.62483 91.93189 91.36579 86.47154 86.13281 84.89933 90.63831 96.33459 97.00057 96.18073 95.79939 97.18120 97.48939 98.80994 99.68341 103.07207 103.54453 103.60094 105.29607 105.35914 107.57210 107.88698 104.20348 100.65362 93.79233 85.49415 76.73462 71.06312 66.19020 57.25707 53.71084 48.87216 45.19875 42.32897 35.44162 36.65362 31.43303 30.08799 29.65914 29.18046 29.47959 26.55622 28.16493 27.78995 25.82075 25.47361 26.63599 25.45298 27.22562 25.34682 26.26639 26.74139 23.38939 25.76972 25.91361 25.63083
23.58231 24.68002 25.20120 26.46679 26.85902 26.22059 24.48119 24.91053 25.11213 26.47661 28.73525 27.48003 26.70189 28.09263 30.72024 29.65964 29.79059 30.51625 32.41882 34.58860 34.04826 34.54836 35.26629 32.90150 34.06159 38.22903 36.64983 42.35417 44.05039 46.50178 52.92237 57.13659 61.12908 74.99528 80.05684 84.96037 90.10807 102.19484 107.33723 109.54481 107.75829 107.02362 104.82356 102.70409 101.17695 98.59255 99.85336 99.08087 98.17291 98.02016 97.35579 96.60609 96.88715 94.67210 96.20995 97.32425 99.07335 98.47961 98.14713 96.29735 97.40373 96.80570 94.27907 96.28913 99.26743 94.90808 93.37567 94.46335 95.27433 93.11307 80.60556 78.24125 83.04034 90.62133 94.80480 93.53125 94.65895 95.23178 99.02632 97.53828 98.07575 100.40024 99.56358 102.52654 104.69833 104.40761 109.04236 110.04599 108.44592 101.41247 94.99633 90.03880 81.77107 70.52930 62.93687 64.27923 58.14124 50.06066 46.74910 45.53391 39.26100 36.94440 35.83192 30.40208 28.36015 29.11650 28.81808 26.54202 26.78088 24.98007 27.54357 26.31755 25.35681 25.82869 25.74953 25.63075 25.66286 23.84161 24.89667 25.26521 24.86924 26.83105 25.58302
24.69086 24.53034 24.85594 25.65628 25.82121 24.52866 25.85995 24.86261 26.55894 26.79042 25.75664 27.67618 28.37080 29.33721 28.14265 28.38744 29.43372 29.64042 30.15681 30.14635 29.03049 32.11718 32.06212 29.71454 35.13555 37.96303 43.34294 46.56494 51.20953 50.00907 54.55009 63.49515 67.06718 78.01782 84.18427 86.62571 93.20616 97.05736 106.14705 107.35212 107.93281 107.14340 104.86554 104.19945 100.97446 98.44540 98.75889 98.50046 98.29921 98.65556 98.11687 94.93670 97.56486 96.97351 95.93634 97.09778 96.28350 96.65975 95.71892 97.13158 97.18336 96.56839 98.53390 96.09000 97.43651 97.01656 92.76360 90.53981 86.26592 85.55784 85.24284 78.61805 79.15046 84.93646 89.88290 89.27562 94.13481 94.74787 96.35324 99.88561 97.28467 99.73095 101.02041 103.74976 101.91629 107.35229 107.51395 107.80056 108.36956 102.77333 97.42245 87.44182 78.53714 70.49392 61.79589 53.91504 54.09431 44.16468 41.49352 39.70449 36.01556 34.33916 30.68156 30.57499 30.53526 31.56565 28.00119 27.06702 29.77011 29.65503 27.40938 25.67256 26.42556 26.87903 25.88122 26.28806 25.48200 26.56360 25.63731 25.24390 24.95560 25.89085 26.52718
24.72057 24.82409 23.96351 24.91659 24.36992 26.82234 26.08070 26.46460 23.65347 25.60685 27.72048 26.73160 26.81921 25.47394 27.94179 26.76441 26.96893 27.27911 28.42437 28.17709 27.61519 30.72361 29.14224 33.53667 34.99986 39.91588 46.28999 52.83610 55.23451 58.45436 62.64644 67.44283 70.11359 80.19207 85.43279 88.27836 94.00996 98.00876 105.32531 108.19162 105.14578 105.06933 105.28093 103.63445 103.29566 98.29257 100.37728 98.69409 97.92702 96.50527 98.36205 95.27892 96.97538 97.75441 97.57831 97.26396 97.56028 96.55583 97.37384 97.29161 97.69783 98.16935 98.62286 97.68755 96.95670 95.88957 95.40847 94.57961 91.31379 81.51432 77.60680 74.63797 72.17717 73.49829 84.37333 93.38604 95.12374 97.34506 99.20020 97.04592 97.73767 99.74055 99.64519 101.82516 104.78033 107.30265 105.92863 110.10643 109.09424 102.37073 98.87920 94.70473 78.15117 74.72944 68.01172 58.15258 49.19880 46.74001 39.14883 39.62801 37.59670 35.55276 35.36027 34.65025 34.93153 33.99146 32.32339 32.76345 28.68535 30.05231 28.68852 28.10265 27.76925 27.87203 25.20540 24.70122 27.68800 23.64215 25.55302 24.65572 24.65208 25.08269 25.30439
27.42566 26.39152 22.55114 24.81842 26.85651 25.24889 25.16977 24.73835 24.37202 26.97635 23.54273 26.23171 25.89627 26.25060 26.94707 25.99313 26.54808 26.53241 27.58721 28.68624 29.08887 30.69255 31.64619 36.68919 38.00230 43.09217 47.17974 51.46327 55.16161 62.26432 65.51660 70.85729 73.54454 77.60906 79.26622 83.96947 89.26495 93.59183 101.26683 107.83772 108.15122 106.20549 103.55971 104.79073 99.91323 99.90714 98.04289 96.20152 97.62213 97.01336 96.39465 98.94916 98.47883 98.88269 97.71890 95.61258 95.82074 96.55933 97.24722 98.60907 97.09727 98.65885 97.16237 96.35330 97.53431 95.93953 94.99441 97.06592 96.15963 91.44708 87.45539 82.57468 73.94471 69.94350 84.63387 88.44090 92.79733 94.62582 96.80725 97.74134 97.67586 101.25437 99.97491 101.98464 104.27980 106.76976 106.94552 108.34920 107.72045 107.22933 102.24281 95.16412 87.68110 77.47747 74.56929 68.20217 61.74229 51.09714 47.41627 43.85759 45.22131 43.05590 41.36946 39.12050 40.69037 35.61278 34.25038 33.05595 31.70227 32.17548 32.03775 30.23490 29.49497 28.35912 26.52422 27.10268 25.60598 25.13089 24.23075 26.42111 24.79587 24.21655 25.74047
25.60849 27.21321 24.90227 24.54186 25.32291 23.60854 24.83578 26.37638 24.95316 24.96553 25.02608 25.81581 24.97408 26.35649 26.89868 27.92391 29.06776 29.26304 30.30839 32.74141 31.40537 32.81577 35.04114 39.31755 40.37753 44.53962 47.26765 49.46346 52.71025 59.48516 62.39275 63.17359 67.40814 69.86248 68.36285 76.07082 83.48813 88.74777 98.44763 100.91440 106.33357 106.77205 103.52340 104.88021 101.33517 98.80680 98.63020 98.76091 100.30951 97.17622 97.95243 97.81019 97.81791 98.39663 94.38432 98.58883 97.29143 98.03183 95.21562 96.95513 96.48691 97.20320 97.15317 95.55555 97.90155 96.05103 93.61664 92.56493 95.39490 92.83222 88.19958 80.38126 77.66119 63.64408 66.94665 77.79672 86.00921 91.45113 90.47589 91.88221 93.17631 94.65301 100.45802 102.62575 104.97487 106.71132 108.95181 107.62478 105.57133 104.95505 100.36025 95.58440 91.09223 83.25435 75.94669 71.47705 65.80137 61.75474 54.62864 53.53326 50.25380 44.98256 44.05493 42.16703 40.12597 39.89657 37.40197 36.12274 33.79029 31.57595 30.79423 29.85869 30.61453 29.56917 29.39878 28.60126 27.29549 25.22419 25.35131 25.79228 25.97130 24.74576 25.08878
25.72592 24.17985 26.88895 26.37298 25.62220 25.60913 25.35703 24.38382 24.99804 26.14490 26.24869 25.44418 25.34080 27.07691 26.95120 28.48187 27.43461 29.34914 30.40779 32.46036 32.57786 33.91649 37.53765 38.23042 38.78106 39.14545 44.67361 46.47494 46.13875 52.32977 54.97196 57.27051 56.18341 58.49901 63.43925 71.14458 77.51482 84.79148 95.94245 101.10809 105.86209 105.27340 108.42509 101.72472 101.22276 101.08773 100.22053 97.40649 98.18429 97.73171 97.76280 94.91075 97.09468 96.09400 97.67059 96.04848 98.00704 94.89549 96.25634 96.85496 98.42918 96.52880 97.98752 95.63228 96.09781 96.03834 96.42141 93.96089 89.76381 83.40363 81.30766 77.05156 71.02786 70.96824 71.62247 61.30228 76.34022 82.79427 81.67839 75.60606 84.34850 96.14786 98.24507 102.82544 104.79583 107.44313 107.26923 104.49246 103.38877 95.78410 94.19676 90.55423 88.63835 81.76845 77.77426 74.35857 70.43451 65.72971 60.82077 56.98672 53.64940 51.57976 46.83439 44.58224 40.07550 37.97498 34.70037 34.47433 31.46217 29.86124 29.37411 30.99361 30.02818 29.17905 29.16182 28.16383 27.06723 26.57987 26.55284 27.82256 24.53827 26.00903 25.14014
27.41673 24.45212 24.90838 25.39084 23.91068 24.84325 26.96418 24.88254 27.08361 25.35640 25.76209 28.39397 27.54672 27.78086 30.30968 28.83949 30.70052 30.57825 31.32215 33.93782 35.71569 34.28908 34.14468 34.33987 36.45226 36.70941 38.71310 42.58770 42.07039 41.90453 45.63811 47.43070 48.32382 55.70084 61.60566 70.10549 76.74811 85.59161 93.07031 97.98084 104.87243 106.44576 106.83119 105.75919 102.08039 101.67960 99.87687 100.04885 98.61693 96.55839 98.68221 97.01470 95.74374 96.55430 97.10549 98.49567 97.96277 97.29404 98.21095 96.08342 96.40938 96.58391 97.05817 97.08910 98.63696 95.88112 96.59989 94.70460 86.91921 81.06666 87.33234 87.54861 81.52713 88.93723 83.55684 68.52966 67.99895 70.92806 63.66788 65.59266 81.93639 90.89671 94.52353 97.63140 103.23547 103.87969 105.75737 101.28310 99.66753 91.28411 85.94008 83.78578 77.64826 73.66519 68.29407 70.61209 65.48285 64.66328 57.43554 59.10933 55.06329 51.30722 46.67724 41.14863 38.65315 37.24149 35.74612 30.02379 28.63862 28.16079 27.92111 27.71938 27.00262 26.92662 26.16294 27.80859 28.98074 25.92050 26.27552 25.45326 24.64575 25.07542 25.69310
24.86413 26.11452 23.78831 24.78306 24.26057 25.20607 26.32531 25.27559 26.88190 27.51436 27.45769 26.88603 26.17581 31.67491 29.05151 29.18941 30.52786 30.43555 29.28587 32.22168 29.61414 34.23219 28.99028 30.78998 31.42679 31.78127 34.47032 35.87674 37.30705 41.72321 46.74446 48.05053 53.06471 56.66364 62.54211 71.63233 80.32618 85.63148 93.89544 103.98850 103.29086 108.30040 105.48237 103.74826 103.01276 102.19238 99.44798 99.69520 98.08271 100.33070 98.26271 98.17292 98.87211 97.86138 96.48423 96.48394 96.48050 95.70270 97.38022 96.39396 97.32185 96.04705 96.78673 95.11317 97.78554 96.38805 95.96988 92.20373 85.20249 87.83034 95.21829 94.70371 91.09353 91.26430 79.79335 71.39921 61.86312 64.06605 57.52752 62.67738 77.51010 83.23266 83.59907 90.97797 92.08461 96.77718 94.96687 92.51656 89.00891 90.85948 80.17718 74.59567 66.80758 62.90495 61.79994 60.41228 61.53556 59.60187 54.97738 48.93633 52.04865 49.27862 47.14142 45.90205 39.62974 36.06284 35.44730 31.22800 32.33666 29.88508 29.25983 27.13956 26.35864 26.80546 25.33422 27.11479 25.70795 27.58823 24.70792 24.81929 25.25729 25.19121 28.29124
26.02103 27.00936 25.69544 25.98617 26.81581 25.45299 24.90223 24.17610 24.82417 26.77612 27.78703 25.71979 27.32408 27.02759 27.60817 30.14514 27.70929 29.61140 27.60560 31.05499 27.90773 27.71714 29.94329 30.39027 32.71979 37.04514 36.91402 41.85930 40.33353 47.84816 53.06705 53.23949 62.82507 67.72849 72.23115 77.73511 84.10874 90.57783 98.33865 103.07866 104.71763 107.25386 106.49149 104.13742 104.12583 102.61030 102.34318 100.02416 100.17133 98.47548 98.53241 96.18078 97.19530 96.94643 99.08201 96.35247 96.20012 96.50519 95.56988 96.80106 98.65934 97.87148 97.78380 95.61976 95.16143 95.27629 90.95172 88.26976 90.96821 91.91550 93.79841 94.47715 94.77765 89.87346 85.08594 81.98893 77.60658 75.20880 57.84831 55.82586 63.59627 56.50806 68.20824 70.60530 79.44396 77.60333 73.59757 73.44935 78.41938 77.06812 79.73683 75.11633 64.72582 59.30752 53.61146 54.44912 51.40429 52.26599 50.76067 47.76676 43.99332 50.50261 46.96005 44.81812 42.31153 40.34872 37.25878 34.64322 33.35948 31.16589 29.36566 26.20590 26.51665 26.28618 25.99939 26.44924 26.09804 26.08963 24.46450 27.67068 25.26423 24.58418 26.21107
27.58051 24.85412 26.84715 25.01425 25.26364 25.59371 26.08871 26.48889 24.25291 25.00718 26.49729 26.34829 28.08359 26.99293 24.88196 25.34900 28.80072 27.91337 27.00898 27.27231 28.60692 30.22623 30.28410 34.45892 36.29426 43.02827 44.00291 49.21233 47.89737 52.00162 57.36629 59.60398 69.25715 72.10060 75.04401 80.81552 86.65197 91.07058 91.85762 98.41291 104.71329 106.96707 107.41524 106.55900 104.84456 103.03964 100.95787 99.83049 99.96292 98.29713 97.51336 99.10741 97.89776 99.26345 97.64234 96.90522 96.90574 98.38501 96.96323 95.73608 98.56186 97.37749 96.37867 95.27165 93.55561 93.56824 93.33821 95.31525 96.27498 92.04587 95.18322 97.20467 95.02434 95.21079 96.70838 93.22021 90.32681 77.77058 71.54465 62.41790 51.48959 45.37390 49.23759 54.50805 59.95093 60.04182 59.45474 52.14825 59.91250 60.74959 67.08656 69.34837 66.72435 60.96194 54.36293 46.57840 45.92562 43.99878 43.49739 39.71184 40.71862 43.02689 44.10152 41.28913 43.94948 42.40818 40.63752 35.91847 33.39280 32.65698 29.09668 29.02032 27.34842 25.90676 24.61973 25.70866 24.77131 25.45304 25.12087 25.42489 25.06733 23.31061 26.34097
25.48126 24.68742 24.23983 24.13213 25.57193 25.58283 25.75706 24.95554 24.23208 24.07587 25.40952 26.09294 27.08748 24.33550 25.16551 27.24430 24.45621 25.35555 27.52040 28.49995 29.81219 31.49155 34.71379 37.79404 41.44248 46.57396 49.76259 53.51050 53.97242 55.74101 62.51831 67.53221 72.95152 72.36520 76.17630 75.93404 79.36593 82.85284 89.78761 95.68685 101.08272 106.59202 106.69815 106.80715 103.65613 103.25898 104.14568 100.40328 101.14632 98.32866 98.08873 99.99480 97.39986 97.40204 96.55366 96.46583 96.68166 97.54037 96.74125 95.90208 97.38471 96.44204 96.08909 96.65048 96.36865 97.31053 94.01584 95.63903 97.01363 96.13120 96.05580 97.35635 98.99420 96.43439 98.21818 97.88682 98.02793 90.10461 88.95537 76.47525 60.29270 58.56709 55.48717 52.81031 46.27945 38.16002 43.74280 35.61844 35.48514 38.87529 52.43541 60.47685 56.69537 58.15717 53.27768 47.46987 39.76098 37.37852 37.55850 36.74666 33.89485 35.84959 38.27265 42.31273 41.11621 41.31960 39.65268 40.05558 33.83894 31.23364 29.77795 27.96575 25.09015 25.55512 26.01219 25.01287 25.17286 24.79126 26.73182 24.73680 25.42503 25.33057 26.63274
25.59445 24.82160 23.70155 27.07891 25.64618 25.58322 24.52773 23.83144 24.23262 25.22386 25.20863 27.02247 24.33845 25.29430 26.38579 27.29837 27.14031 28.25884 27.74751 27.99589 31.21827 33.62168 36.70204 40.00078 44.26860 48.03128 51.81634 58.20861 58.98485 61.22699 65.51278 66.21710 70.31330 68.92500 65.73311 68.98132 71.38931 76.82595 84.75522 95.48196 98.94180 106.42780 108.98786 106.09811 106.46456 103.92168 102.62953 101.13441 100.85026 99.57161 99.87315 98.71183 99.05781 97.73420 98.02345 99.03750 95.40305 96.96759 97.42967 97.32341 95.85005 96.84536 98.19292 99.51076 96.94906 96.32674 97.87024 94.65278 96.14262 95.12918 97.09576 97.84805 95.42090 96.72450 97.97789 97.62748 98.53612 96.58712 92.95613 83.43532 81.75937 82.10512 76.23869 74.67282 72.96324 69.62750 62.00407 51.32017 45.61887 34.81580 36.91629 48.68082 49.29623 49.27730 47.09799 47.05608 45.95207 37.84157 37.86441 31.68641 33.03631 33.61853 31.85888 32.49423 34.83949 37.15705 39.11194 38.12889 35.45954 30.84073 30.84970 28.93132 27.76301 26.76812 24.44654 23.97382 25.38925 26.12679 25.90173 26.78170 27.38813 25.61941 25.51131
24.94672 24.28999 24.37542 25.97880 25.11349 23.89796 26.28557 24.12185 23.64486 25.57215 24.67303 26.63069 25.31896 27.98227 24.63049 27.30100 29.77745 27.41499 31.06460 31.18373 33.27711 34.35965 36.13931 38.81874 43.86328 47.48995 52.88592 58.70999 58.70945 58.51036 64.10172 63.38766 63.10948 61.29573 59.78699 61.77373 65.26758 74.77939 74.81142 92.32674 99.16828 103.12563 105.10018 109.26354 107.28664 105.22868 104.20430 102.71232 101.26439 100.14219 99.70996 98.67130 100.27579 97.34670 98.21696 98.23812 98.12130 98.96288 95.79407 96.75529 95.86151 97.77547 96.18470 98.06213 98.07400 97.61354 97.45169 95.90964 96.87832 98.30097 98.80917 97.08587 98.00007 98.49809 98.15405 97.29859 98.60078 100.06636 97.13530 94.63753 91.11665 95.41892 91.56446 90.94914 89.08019 80.01014 80.28104 65.79877 60.44462 46.07552 34.59203 31.82657 35.85489 37.20060 40.45839 44.32973 43.01578 39.73353 34.86045 29.93389 31.05684 27.89496 28.05180 30.95370 32.60715 33.61252 36.35660 36.74782 35.94526 32.09395 30.45872 29.00034 25.92370 26.21551 27.61996 26.80822 23.50740 25.50815 24.64840 27.05628 26.19337 26.14693 24.47905
23.58012 26.11990 25.75151 25.58392 25.45967 25.75908 25.68754 27.53216 25.54994 24.99946 24.72518 24.98655 25.32072 27.00617 26.95935 29.58922 27.69505 29.48265 31.67512 33.99706 34.11514 33.57897 35.40850 36.92140 41.43997 45.16961 52.15089 54.44230 56.80544 53.71622 55.35008 55.49328 55.82461 54.19390 52.32888 55.73507 61.34707 70.63172 74.64877 85.64057 95.17482 103.57482 106.64961 107.21916 106.88314 107.23880 105.67066 103.36142 102.72200 101.37078 102.07876 98.74515 98.93890 98.55781 97.80627 99.30075 97.17636 98.14739 96.75672 96.01268 99.42418 97.41688 95.63843 96.68991 98.01665 96.84621 96.24415 97.27234 95.83983 97.24810 96.96981 99.89391 99.46640 97.73662 98.75030 96.80511 101.12370 100.27680 102.69420 98.40802 99.72955 102.48961 100.93573 103.18548 101.25757 95.78129 90.04597 78.70661 72.32213 52.28125 45.12372 37.79179 31.86569 33.62652 32.58038 34.92999 34.21219 34.09540 33.01088 29.49740 27.68807 27.49638 25.64734 24.56556 28.05136 30.85200 32.51347 34.14700 33.26385 30.92397 31.41158 29.32978 28.58891 28.00992 27.40359 26.21196 25.08984 24.56227 24.85552 24.06642 26.77400 25.74063 25.37790
25.17873 24.36286 25.17953 26.93755 24.56833 27.32156 25.20557 24.33271 25.06476 25.48970 26.00778 26.23272 27.43224 27.88268 28.06025 28.30860 28.82732 30.17183 30.58348 32.54517 32.10763 32.38387 33.64037 37.51236 43.44820 45.97623 51.43934 51.71350 50.89836 49.01081 48.69636 49.59863 47.22906 47.60880 49.76423 59.71626 66.57863 74.50857 80.51526 89.17045 95.61890 97.96445 103.94271 104.87861 106.17565 107.75998 107.87024 108.63160 104.58088 101.33147 101.36993 100.74362 99.95455 97.42358 100.81354 97.25113 98.74542 101.02729 96.83847 98.50085 97.37950 96.81910 96.18795 96.34989 98.13351 97.34701 95.99823 98.68166 97.26927 97.39512 99.74661 97.63153 98.51819 97.63600 100.36629 101.60396 101.85303 100.44268 103.41203 104.12846 104.92269 107.03382 107.29237 106.34018 104.76361 100.96736 94.83737 83.88593 75.72430 69.31989 57.55804 49.31340 48.03695 40.68577 35.70690 33.04632 29.01054 27.90606 28.85568 28.11154 27.00881 28.89786 28.62651 27.27325 26.07247 28.58420 30.03741 31.02294 28.95494 27.56084 28.75963 28.23646 27.85356 27.81868 28.89680 26.22952 25.59145 25.78861 26.06439 23.12972 25.18313 25.37967 24.96375
25.37580 24.97043 24.54809 25.16172 25.53836 25.70134 26.07786 25.43939 24.46964 23.61668 28.43865 27.61684 25.96202 27.31941 28.44224 27.29920 27.72683 29.00605 29.54264 27.32810 30.50898 34.10678 35.56766 39.71714 43.19607 46.78236 45.75894 44.71457 40.57616 44.03572 43.62778 41.33635 45.25623 53.31459 58.53896 63.22641 70.80539 77.35078 84.16736 86.62858 91.74208 94.96451 101.55650 106.17993 108.49305 108.78582 107.10083 105.60221 104.07712 106.05521 100.54928 100.20367 100.35303 101.93859 98.28459 98.83725 99.64716 96.99731 97.47666 97.90062 96.00402 97.64000 97.39200 98.37201 99.08651 99.22190 97.47623 98.52707 97.45149 98.76054 96.69622 98.07099 100.92876 99.66616 100.30088 100.25119 102.56715 102.93274 102.58996 103.89341 107.53949 108.10053 108.21445 107.24125 100.14940 98.69378 93.51103 87.72182 81.42070 74.09493 70.16202 60.39716 57.93270 50.79892 45.42556 40.54756 32.73621 28.67752 27.68928 29.05830 29.24704 29.41575 28.48838 26.90119 25.28924 27.25565 26.91177 26.46390 28.57452 28.24302 28.08250 27.37386 27.44151 25.90297 24.60765 24.83062 25.59781 24.60766 25.21358 28.23986 25.65637 24.96698 27.56048
25.47766 25.41579 25.82375 23.99267 25.96640 23.14875 25.52887 24.42004 24.97590 25.83411 27.18645 23.49559 27.62078 27.50409 27.91080 26.72589 25.97506 28.45105 27.70543 29.59620 28.11513 33.94996 37.37739 39.11547 43.02615 43.67886 43.32245 44.03530 39.08729 36.80281 40.35416 42.30488 48.03735 55.68342 64.05065 67.65517 73.76094 77.01612 78.54699 81.84970 87.20335 91.11105 97.34993 102.80636 107.82783 109.73532 108.70053 108.09759 105.02391 103.59372 101.95231 103.08408 103.16848 101.44429 98.97774 102.22955 99.42900 99.19597 98.63952 98.19488 97.82557 98.46927 99.65792 98.48864 98.03230 96.77190 98.26435 96.67909 98.16587 97.84235 98.00349 99.84851 101.59842 102.52998 101.79411 104.33816 103.30867 104.42005 105.73826 107.94904 108.67126 107.00087 108.12424 103.36938 96.03680 88.20033 86.81720 82.74065 81.19439 74.13630 70.42680 67.19324 62.75645 60.27558 50.99699 41.39279 37.07950 33.52625 33.56030 34.53580 31.95717 30.24721 30.87346 28.53276 26.98122 26.04232 25.83141 27.15833 27.87793 25.10367 27.26903 26.05094 27.44780 25.99888 27.01193 24.19583 25.35817 25.49966 25.57992 27.70475 25.94569 26.82312 25.21674
25.52170 25.01690 27.03812 25.40731 25.70049 25.11799 25.57498 23.97813 26.04224 24.25335 25.06494 26.18607 25.87732 26.53353 26.23794 24.87681 25.34366 25.78943 29.17163 31.13910 30.97694 37.94730 35.46407 41.59011 39.46425 40.45234 37.54510 37.96569 35.00177 37.84367 41.37672 45.29812 50.27869 56.29331 63.52229 66.34866 66.73234 70.96211 69.99374 77.98664 81.53161 87.34250 95.90027 101.56448 105.84731 109.08963 109.63963 107.89646 107.92277 104.51644 104.93108 103.27915 102.09703 102.18112 99.59361 102.24820 99.50597 100.65427 98.06476 100.66352 98.21965 99.27045 101.05699 97.85280 100.77185 99.00110 99.39481 99.46021 98.54932 98.14936 99.60749 99.31927 102.36187 100.52246 103.87279 104.32334 105.30246 106.03032 105.02084 109.26327 107.89780 106.28547 105.11905 100.55661 92.09715 86.08204 79.56218 72.53542 69.24419 69.23821 64.35248 66.51451 65.29700 60.40299 53.78663 46.35732 39.93437 39.10419 39.60594 38.06068 35.01653 35.97950 34.84079 28.81308 26.92452 28.49668 26.21457 27.16101 24.08093 25.43860 26.23086 24.76531 24.69955 27.16757 25.58564 25.75474 27.25360 24.46851 26.02384 26.92418 24.80014 26.42515 24.63633
24.39183 23.00260 26.88476 25.06222 25.05402 25.81927 25.61935 24.07793 24.02162 25.89053 25.73665 24.75443 27.15396 26.65758 25.50191 25.94120 26.94628 24.79558 29.79352 30.99965 32.67926 35.07264 35.07331 35.89579 34.37973 36.06536 34.18860 32.67807 34.94245 38.48498 43.22466 49.63335 53.86553 58.92838 59.69740 59.18277 58.98405 64.36272 68.18099 74.79406 81.87409 90.04011 98.44221 96.03517 103.44393 108.01788 107.73488 107.10433 109.62124 109.35400 105.58384 104.15170 105.12819 101.79767 101.72813 100.87718 99.34423 101.65378 100.93668 99.68743 97.93876 99.61573 99.46350 98.35431 100.80511 99.57172 98.85910 100.99298 101.58198 100.83231 100.15026 100.37557 102.95746 102.97016 104.19567 105.43974 106.66839 106.27825 109.03974 106.70589 105.27536 102.69126 99.48028 97.44050 92.41263 86.93342 74.55735 64.47057 60.81991 60.32811 57.87056 59.34008 59.39560 59.06477 57.77670 53.34323 49.30229 47.51491 46.46567 44.36014 40.91709 35.27466 35.76816 35.19202 29.35745 27.28806 29.34734 27.94463 25.51619 26.10829 26.31414 25.64494 25.84172 26.61610 26.43075 26.13675 25.57008 26.71294 25.36077 24.52537 24.82854 26.22500 25.27977
24.82655 25.07576 24.97296 24.85254 25.08491 26.49015 24.89488 26.00446 25.92177 25.41889 24.62985 25.12363 27.32224 27.40073 26.73869 25.89610 27.53986 26.72635 29.75954 29.64122 32.93433 33.72176 34.20942 34.12409 29.72213 32.66229 32.63877 34.07037 34.16525 41.08302 43.69317 48.52091 50.11658 49.84470 55.44928 53.71520 58.62248 65.72605 71.70446 75.63328 82.69700 85.91823 91.98474 94.48245 100.32805 104.47207 104.43165 103.28878 105.45446 108.42936 108.52149 107.21330 106.56854 104.99782 102.38445 103.03262 101.97070 103.50212 101.70196 102.58646 99.93064 102.02200 101.47280 100.83450 101.79138 100.84377 100.44042 102.57941 99.35497 101.22650 101.22623 103.38476 104.20949 105.99184 105.18368 108.41280 109.20981 110.39236 106.27523 104.52672 102.23762 98.18876 94.69756 91.97906 86.40036 80.10702 69.81989 65.14152 55.05070 51.32508 51.25273 52.86003 51.19580 53.16767 54.18526 53.62740 51.97589 53.74403 49.81622 45.82629 42.23304 41.88970 39.44230 35.24490 34.32357 31.96415 29.93799 28.73055 28.71315 28.08468 27.01509 26.42817 26.95849 27.06068 25.65513 28.14476 25.96414 24.87563 26.49573 23.53583 24.83807 26.48499 24.46208
24.60822 26.49080 25.72994 24.25985 26.26204 25.18427 26.89579 24.94993 26.48676 26.60387 24.10501 22.97208 23.23161 25.00807 27.18117 26.10691 26.23862 28.50272 27.16903 30.00887 29.90239 29.43231 31.98219 27.42826 30.84078 29.86692 31.26497 35.74497 37.42502 39.55991 41.30634 43.85292 43.32514 44.94370 47.10273 54.48123 62.16901 66.96976 73.73661 78.38936 77.89742 79.18978 83.01229 86.80714 95.36326 95.90226 97.90239 98.24954 104.39910 105.57647 107.42303 107.48673 108.81284 106.26694 103.57205 106.04745 104.45458 103.50635 103.09236 103.54787 101.57382 102.07335 104.87106 103.89426 102.84880 101.01726 101.69293 104.52034 102.31773 102.79516 102.99852 103.52778 105.77675 106.73440 108.56151 107.92080 108.86746 109.16949 106.91258 101.70572 95.89108 87.96504 85.71249 84.49035 82.84109 75.21508 65.48022 56.14920 51.54223 47.88982 45.04755 43.56951 44.60712 43.42289 49.04459 49.84419 51.97416 52.77938 52.84146 49.23032 44.69202 41.39432 38.64360 35.49685 33.17626 30.92100 29.22551 29.14242 25.92008 25.46191 29.27227 26.19148 26.60701 25.79613 24.60141 26.22051 24.90696 26.06641 25.97924 25.81408 25.25330 23.41899 24.60479
25.07862 23.67528 25.84496 24.92583 26.15234 25.79627 24.52210 24.80974 25.03061 26.25635 27.21285 26.69711 25.11287 25.14420 27.05860 26.59656 26.81453 27.06579 26.84943 29.20732 27.44841 26.87206 27.69831 28.77952 29.27600 29.30632 32.27928 36.81918 35.38426 34.83022 37.48052 38.74281 44.12973 48.06455 49.67416 57.43621 66.57288 68.96715 70.60839 71.03136 71.46567 77.15746 79.64385 85.20504 90.10407 86.78270 86.86775 86.74204 96.17796 99.94226 105.52860 104.02428 108.01364 108.08908 107.32585 106.53394 105.64179 105.72531 106.63076 103.49373 105.01160 103.79662 105.92440 106.59967 106.55709 102.75939 103.91697 102.66261 103.41288 105.97282 106.70654 106.52393 106.07326 104.57531 108.39492 108.41599 108.16950 105.78530 103.43774 101.93908 92.11368 85.12384 79.62686 77.27126 76.35256 76.62423 65.16053 58.89040 53.36948 46.15245 41.93118 41.22072 39.95154 38.55405 42.56858 47.32027 46.87166 49.84785 49.21666 46.87899 41.69289 37.12631 37.84547 32.92822 33.88870 31.57507 33.67386 29.30628 29.81174 27.03349 26.25916 25.66475 25.62394 25.94955 25.74895 24.45372 25.63866 25.48268 24.73551 25.74551 25.84105 25.05229 25.20492
25.00994 23.96879 26.37297 25.57899 25.76968 24.66049 25.70967 25.73804 27.40604 24.92060 26.21903 25.91308 25.85403 25.34790 25.62302 26.47316 25.20188 25.21454 26.73408 24.96703 28.15147 26.89411 26.71916 29.36405 30.71597 32.53657 32.18965 34.61010 32.41541 32.44413 34.91539 41.29893 44.14253 46.32494 55.51744 61.78166 65.63775 68.95006 66.86990 64.29940 65.84357 70.43882 77.54939 82.65171 82.62187 77.86693 76.93893 79.68960 86.94972 91.42583 100.88970 102.10811 109.45826 108.10747 108.53634 108.18989 109.45881 106.88143 105.78861 105.44240 106.24993 105.83585 108.22764 106.92998 105.81082 105.61322 107.33315 104.55215 106.86190 108.13807 107.20772 106.83235 107.85259 108.62200 107.75309 108.44317 105.99459 104.86455 96.68791 93.37696 90.04677 81.77285 71.03368 71.06540 72.89963 70.38378 67.85993 64.37462 56.45140 52.63419 47.53983 42.07937 35.70011 33.93636 37.49666 39.35310 44.81254 42.85511 46.21419 42.91286 40.06886 35.72386 32.63785 32.59876 30.84568 29.67224 28.55208 27.20597 26.60729 25.11729 27.73121 27.90775 26.25220 26.30640 24.43860 26.00215 27.40904 23.99790 24.08129 24.73136 25.83159 25.35935 25.58108
25.61161 25.38924 25.24282 25.40861 25.39079 25.54878 25.97934 25.37335 27.66074 25.22061 25.74935 25.23956 27.21424 25.79448 26.60001 24.85738 25.22943 26.21654 26.79411 26.79082 24.06715 24.22489 28.18124 28.76126 30.48836 30.20572 30.63287 31.71011 31.54715 33.90313 38.55544 42.04202 47.11617 51.15240 56.59194 63.31735 62.92742 63.55417 57.45859 59.19787 66.85952 71.94435 75.81170 76.24674 75.69401 68.81897 68.19632 68.28468 79.02739 84.67098 97.52902 101.87990 103.80546 107.26163 110.08329 110.10009 109.62220 110.03743 108.74129 107.80188 107.33062 108.26683 107.52681 108.18935 107.70079 109.23729 109.08704 105.30722 107.59648 106.26166 105.93033 106.57724 105.58889 105.61434 105.05342 103.52108 105.11221 100.35547 94.28412 88.02937 83.63469 80.60775 64.90282 66.37854 64.75095 67.39009 67.90680 64.18189 57.93691 55.88358 47.82680 44.10195 36.55433 33.54910 32.11033 33.36122 38.37620 39.68829 42.59231 42.36537 40.81295 33.83560 33.75869 31.33682 29.79821 28.88505 29.16562 28.36290 24.58659 26.08575 27.08044 26.72276 26.12850 25.84527 26.34715 27.41206 25.54459 26.14821 26.79673 24.06490 24.33141 24.78744 27.16576
25.15860 25.25637 25.38614 24.68036 26.52033 25.94391 25.12762 24.50967 23.99104 24.96970 24.71147 25.90377 23.70122 26.25227 24.29279 25.97255 25.29843 24.63130 28.28103 27.67246 28.72225 26.31991 28.31500 29.32254 27.40474 29.41523 30.30901 29.74051 31.90003 35.65586 39.46817 43.04762 47.86575 53.97842 57.72070 57.09823 55.10704 55.83113 53.40577 58.11834 64.01250 70.66137 72.26634 70.29379 66.62816 61.15734 58.25372 65.50734 74.86639 87.66679 90.57316 97.12576 100.17175 102.36298 105.93450 105.28152 108.46833 109.95452 109.07392 109.63840 108.46494 107.84950 105.89885 106.18516 108.88431 109.81815 107.70290 107.50496 105.32039 106.47726 100.88330 100.29814 100.38222 101.10638 98.58945 95.18159 97.78943 95.58829 92.11970 86.06688 81.06600 75.40343 65.30351 60.68743 60.64323 62.18676 65.16265 62.99794 59.94737 53.45267 46.38747 43.17057 37.92986 34.45042 30.98703 31.59222 35.35343 38.06204 40.16672 39.28979 39.18965 37.28324 34.66016 31.52979 29.95248 25.60558 27.37717 27.85692 25.33673 27.72947 23.44145 26.88534 25.81237 23.15984 25.68569 25.63914 25.95960 23.83686 24.51932 26.65233 26.05045 24.28836 23.91514
25.40304 23.76573 25.46752 26.47941 25.16479 24.09613 25.96542 25.24415 26.42020 25.64459 23.62587 25.92797 26.43560 24.48781 25.97448 25.16517 27.55507 26.70925 28.85045 25.90355 29.17861 27.01161 27.57169 27.77146 28.07271 27.79179 30.37594 29.86524 33.05002 34.85848 40.84627 45.90118 49.59321 53.26874 53.69089 50.76420 50.34848 48.88494 47.99009 55.39592 62.08826 67.37689 65.58675 61.71241 59.01498 57.18767 57.21835 66.56036 76.70053 81.95996 91.61254 96.99555 97.43446 97.37852 101.76132 104.62701 105.73557 107.01038 108.13949 106.55163 107.02030 104.55339 104.91204 105.65668 104.39879 106.16165 107.15262 101.05832 99.87832 98.04658 95.86427 93.31232 91.70020 92.14665 90.08247 90.85454 92.55487 90.75983 88.88263 81.19452 76.58887 68.53965 67.02323 57.02553 51.89737 52.83950 53.50032 52.27667 53.12925 53.96811 51.69813 47.66858 40.20437 36.26257 31.22746 31.63345 30.90321 31.99927 33.92992 34.60763 37.72783 38.19946 36.40841 33.34530 31.05751 30.47213 28.03882 27.19780 28.28512 26.91432 26.22302 26.77459 24.97152 25.82359 26.38115 26.11856 24.50334 24.91200 25.67653 26.07038 25.03527 25.81271 23.47811
24.46021 23.50847 23.39827 23.98498 24.87990 25.42230 26.13712 24.25381 24.72419 26.69225 24.83997 26.50224 24.31593 23.29191 24.70211 25.18449 26.44580 25.78382 27.90581 26.63256 28.59397 27.25057 28.45001 26.70094 28.49893 30.10682 30.56639 33.04050 33.78756 37.76159 42.38459 44.98286 47.32513 48.76277 47.36769 45.05900 43.30706 44.59108 51.21015 56.67762 60.67000 60.02963 61.78503 55.78145 51.06536 48.80085 51.65018 65.02681 72.62996 82.22880 85.73675 86.10945 92.09692 90.74210 93.99967 98.13087 100.65533 101.19876 102.42803 103.14114 102.05675 97.72603 97.19800 95.19903 97.01948 97.53693 101.25073 94.39849 94.27067 90.38190 86.43455 82.82323 84.57281 82.25694 84.54933 80.71326 80.23861 86.44181 83.84861 79.12590 72.01535 67.62523 62.39259 56.54701 53.37369 49.40892 46.79915 45.14024 46.30588 46.62433 46.61142 44.96563 43.11165 38.48674 33.96565 30.35969 31.92297 31.37112 34.00894 34.69078 32.75979 35.79190 36.44130 33.86959 32.73656 31.84334 28.00854 29.39095 25.29593 25.94719 26.33025 25.53980 25.71105 26.49300 25.41672 25.20038 27.61257 24.80806 26.16329 25.52469 27.72941 25.64746 26.85958
25.97604 24.73181 25.52408 26.30732 24.03579 27.30489 22.89297 26.12654 26.02046 26.06430 24.73880 25.62258 25.55894 24.01194 25.19164 25.59696 28.18030 27.30190 26.05380 24.96924 27.49633 24.99309 25.98885 27.52835 26.92575 31.51239 34.12879 34.94056 35.97061 40.51494 41.47824 43.42620 43.26103 42.80311 41.24645 38.45935 39.01441 43.93221 51.54033 53.89679 55.48626 56.17343 51.51112 50.71380 45.73238 43.90325 54.54480 60.17986 71.65611 76.11758 82.01444 80.32123 80.07443 82.48066 86.34737 93.30312 94.03645 92.81282 96.19226 99.59844 99.48600 92.65137 87.42859 86.84126 97.07468 90.20670 90.42010 88.69412 87.10934 83.19974 74.83307 72.77078 74.66747 70.16572 72.83169 73.74598 75.06842 78.31643 79.40194 76.22466 74.34148 63.79989 57.79955 59.31376 55.75007 50.81896 45.26394 43.11104 40.88360 40.31035 42.91300 44.17074 40.78132 39.24058 35.11513 29.79305 28.30383 29.48534 28.63337 30.45540 31.36057 31.83617 33.36022 31.59861 31.34268 29.23517 29.27961 27.42298 26.27713 25.81546 24.46721 26.31582 25.65536 26.48735 25.10572 26.44105 23.91653 23.08151 25.01642 25.50007 25.40985 26.63555 24.16541
25.83313 25.71134 23.94613 24.19453 26.08330 25.37168 24.94761 24.59492 27.05945 24.84638 24.56244 24.38946 24.50249 24.66895 26.78945 26.20287 25.60939 26.30984 26.35153 28.11489 26.68015 26.37742 26.67244 27.25650 31.17790 32.41546 33.37253 33.88849 37.01205 37.71518 38.35333 38.62580 39.17202 34.93197 36.92126 34.14138 39.58856 47.85853 49.22969 51.65233 51.93303 46.70624 46.29414 47.19323 44.43791 47.03090 54.52034 60.20155 68.11777 76.46411 79.33365 72.57425 75.44540 77.06730 84.59671 86.73360 89.78476 86.66193 86.33995 86.46151 92.79554 90.13523 81.92575 77.90165 78.53237 84.33660 86.01821 77.31482 73.19398 71.35887 66.91201 64.95966 61.48941 64.42850 67.97557 64.90277 65.10546 69.62810 74.92290 75.39097 69.47618 61.86295 57.46465 54.52335 52.77303 50.84503 51.60200 43.74646 39.85857 37.01316 38.53922 38.24723 39.64420 38.21213 37.02473 32.69908 31.62118 28.20848 26.87581 28.02669 28.16731 30.29191 29.35528 29.76529 32.21314 30.49626 28.39514 28.34347 26.82192 25.49758 26.24661 26.83662 26.14225 25.36424 24.74173 26.21207 25.62872 23.88387 25.92563 24.78473 23.86601 27.35754 23.69580
24.93938 24.76574 23.93190 24.31413 25.15812 24.72808 23.34544 25.70929 26.20808 24.98984 24.88772 24.91498 25.48834 26.45426 25.38938 27.16708 25.58191 26.31300 24.25868 24.93157 24.54821 24.26731 26.28206 28.39470 30.52122 29.47949 33.82457 35.00803 31.46292 35.46715 37.38800 33.17807 34.71411 31.46090 33.64506 34.65323 43.35729 47.20368 49.85975 46.59042 45.06026 39.84298 41.28498 40.23002 43.08078 51.02351 55.73881 62.18786 68.37664 70.17943 72.25127 69.18757 67.87072 71.33340 81.01984 79.71493 82.83440 77.43024 79.07593 85.31461 86.90936 84.64323 77.24361 70.75090 68.62579 78.22894 80.87526 78.23321 64.67528 62.60716 56.53497 53.10682 52.21901 53.89758 55.24934 59.24442 59.47154 62.13608 68.59821 72.40247 68.92518 64.58196 55.00425 49.21126 46.13366 48.25067 47.07558 44.41680 43.07089 35.75577 32.66266 32.78762 32.44554 33.63828 35.01607 31.17015 31.53727 27.97679 27.16818 28.00106 27.89673 27.35799 28.99293 29.00727 29.44374 30.17371 28.54393 29.08396 26.31468 26.93821 25.42140 25.13703 25.25686 21.66142 25.77616 24.70987 26.83628 25.87651 24.51071 23.80477 26.09418 24.41250 26.33705
24.66743 27.42081 24.33273 25.72587 25.07081 24.34990 25.00008 25.14280 24.25305 25.76450 27.10074 24.25532 24.94658 24.31818 26.30787 26.43158 27.41201 25.17991 23.55133 25.28702 24.87191 26.49884 27.22247 28.94482 26.79076 29.51728 29.26176 29.45039 32.44930 33.71275 35.11102 32.21283 30.59422 32.47439 33.18605 40.92175 44.31531 44.96032 46.06280 42.51681 39.84853 36.32122 32.86644 38.83005 46.63801 50.56973 59.58742 62.12997 63.89007 63.99931 61.57679 62.40877 64.12098 66.93249 75.95342 76.58458 75.01068 71.35325 74.35101 79.71841 80.81289 77.56650 71.99896 67.00428 61.54397 72.95238 78.24834 73.71347 66.09301 58.97704 47.60545 44.67663 45.63121 50.88700 48.46498 49.49255 52.65729 59.78620 64.08073 70.32935 70.29147 62.20025 57.88367 49.29136 40.62922 41.39700 45.10978 46.75924 41.54471 39.76293 35.20040 31.99715 30.55555 31.57140 31.59430 32.16678 31.67912 30.45052 29.02799 28.29458 28.13532 24.77546 27.05644 27.42493 27.62695 27.87515 27.16909 27.73436 26.35074 25.95660 24.90440 25.69592 24.70653 25.22858 25.57827 23.13023 23.55957 24.90538 25.18807 25.41439 25.76975 25.83011 25.91722
27.22276 25.46759 26.36144 26.86042 24.02832 26.86930 26.58685 25.24573 27.47841 25.47789 24.34807 25.84786 24.20475 23.67043 25.68066 26.68667 26.52095 25.40118 26.09274 25.06630 26.15588 26.17407 26.31343 25.87025 26.89237 29.27731 29.32140 30.92765 31.48298 31.24368 33.39526 29.64703 29.82036 30.93572 33.69137 38.00848 42.96425 43.94824 43.70284 37.81081 36.58860 31.99556 35.81892 43.93161 48.78208 54.56385 56.92108 57.05285 55.74109 56.52855 55.97212 53.30828 54.98437 61.70576 68.14804 69.94929 67.70538 63.03832 65.52520 69.89187 74.37618 70.33624 60.80490 58.07526 58.10077 62.27495 68.83004 72.10942 64.89954 55.26228 46.76972 39.30677 38.45629 40.32204 44.94480 43.94964 50.35449 54.73113 61.20985 66.41277 68.95456 63.88005 50.66912 47.97077 42.43736 37.16328 42.70329 43.51889 43.36669 39.27593 37.23123 32.97361 30.13484 30.69502 29.70995 30.84455 33.05920 29.82430 27.10691 27.48417 28.89639 25.27344 25.85368 25.36317 25.89716 27.47292 27.03163 25.49151 26.34062 25.45173 24.46587 23.18673 24.31635 26.00374 25.08219 26.75441 26.49389 23.88318 24.57325 27.46902 24.10821 27.54386 23.99668
25.36140 23.96102 25.49943 24.42600 25.45099 26.12378 26.20671 26.02350 24.84172 26.27760 27.02055 23.21895 24.04131 24.00869 26.94426 26.49378 24.55497 26.83038 27.10730 24.61636 25.18718 25.36355 25.76066 27.33322 26.94593 28.99015 29.04060 29.89572 28.90321 31.53680 30.29172 30.23002 28.33100 31.13936 36.04444 38.12802 40.37693 41.93692 38.98567 33.32383 33.61492 32.43131 37.94776 44.29979 49.47866 54.02459 51.45637 47.30306 47.99368 45.86076 47.11666 52.14147 54.71571 61.52813 64.13989 64.85542 61.51067 60.12629 63.00193 69.08265 68.20965 65.53769 59.92773 50.78468 51.58871 55.64226 66.53000 67.53678 63.16945 55.94223 47.35193 41.78473 37.86798 36.99296 41.89483 38.04516 42.78951 49.56608 57.28410 66.66074 67.17300 67.11474 54.91406 46.63741 42.15438 34.88404 40.13781 41.29505 42.04342 41.58268 39.50030 34.12216 31.16543 28.65110 27.34952 29.93574 29.22942 28.72970 29.73274 28.54507 27.11833 26.95323 23.94695 26.42945 26.69719 24.73882 25.61376 25.67739 25.72896 25.93291 25.95019 24.15378 26.06666 24.92297 25.87555 27.71647 25.01115 24.98090 25.93454 24.68862 28.70805 26.36724 24.47680
25.89439 24.71806 23.71995 23.58314 26.55363 25.07971 23.76500 24.33658 24.92570 25.01657 26.98464 24.62604 27.18143 23.97258 24.55638 25.94798 25.69803 25.88677 25.36989 26.00805 24.60333 27.08160 26.00556 26.68439 24.80156 27.82029 28.27405 30.50007 28.14929 29.12630 27.71586 27.72100 29.54671 31.91563 35.02717 34.81498 35.37332 35.71149 33.92329 30.56846 28.79035 31.06011 37.42410 43.61240 48.60595 50.62495 46.98810 41.84727 39.48984 42.29645 42.33287 44.04760 51.29984 56.44792 60.28509 61.39027 56.96008 54.11932 57.10535 66.13474 64.42122 60.63779 58.11679 53.31316 48.14972 54.75564 62.03423 66.00506 63.23713 56.03930 47.35332 39.34717 37.73964 34.81944 33.63186 38.32348 43.71930 49.27482 57.10319 59.00631 63.72665 61.41157 56.24928 49.06291 39.19373 34.74866 34.24781 35.71410 37.76829 38.55821 37.70924 35.13074 31.51628 32.24762 28.99908 25.50875 27.55326 29.10347 29.35333 27.89612 28.78602 26.90270 26.00783 24.10967 27.99344 25.85396 25.13260 27.76225 25.78146 26.08474 24.47374 25.46564 25.20899 24.67693 24.72217 25.30080 24.82368 24.92700 24.06985 25.51357 24.79031 27.18652 24.92660
26.11607 25.72305 25.97265 26.01881 24.93038 26.31473 25.98323 25.15712 25.17920 24.74067 24.99277 26.68746 24.91595 25.10874 26.29293 24.89289 25.26270 25.44681 25.03225 24.78288 25.67304 27.01017 25.88821 26.76747 24.68885 26.43003 27.49798 29.45055 28.91985 27.69569 29.33179 26.38868 30.51087 29.84318 34.19739 36.64068 34.60311 32.64823 29.26320 29.37274 31.75662 37.24905 38.55628 42.61348 48.38057 45.50989 44.82215 38.83844 36.46111 36.85485 38.15711 43.01646 48.24130 54.83025 61.22664 58.21775 54.21217 50.94557 54.28143 60.52110 58.78146 56.84799 49.18642 45.54771 40.23640 48.15339 60.59730 62.31642 64.40406 57.59845 47.77599 42.14961 37.49662 34.04472 34.32671 38.97296 42.23064 47.55619 54.94751 59.42801 61.66989 57.86524 53.05703 47.58808 41.94632 34.87229 31.83618 33.61178 34.09226 37.22932 37.24276 36.80217 33.95382 30.76168 27.75186 27.45380 27.54772 25.46860 28.70793 30.33075 29.28808 29.39896 27.64774 25.06790 26.30373 23.96156 24.42210 24.78959 25.92969 24.37459 26.22192 27.05389 25.30186 24.62948 25.12919 27.47920 25.12092 22.79648 25.46156 24.72375 25.14656 24.09031 26.43905
26.11061 24.17791 24.76490 25.85437 25.22806 24.89593 24.73310 27.80848 24.79438 26.04629 24.26729 26.70162 24.99442 24.48122 25.08752 26.12899 27.06363 25.55739 24.30076 25.96004 23.64170 26.56884 26.09426 27.33900 26.06724 26.22785 28.52394 28.24569 29.55478 25.97779 27.82177 26.34892 30.49981 32.36643 33.50292 33.89420 33.19413 28.64859 26.80930 28.34373 32.02750 37.91746 39.87673 46.11751 44.56723 42.97861 37.85925 36.82949 33.12460 33.80056 35.55646 39.84720 43.85109 52.54398 58.67118 55.81054 49.74130 47.38609 48.57324 54.02408 52.97865 47.91351 46.57405 43.68084 37.85500 42.34264 51.60934 60.96066 61.37843 54.73682 51.62626 41.50583 35.50165 33.18273 34.83836 39.02303 41.21084 47.57145 51.45806 51.77969 52.19348 53.02896 49.26689 43.90591 42.73931 35.85645 32.17546 29.30037 33.16623 32.67173 36.55538 35.50046 33.06639 31.05141 31.21459 27.36964 25.52841 28.67865 27.93490 27.24912 27.51525 27.97516 27.67359 25.76280 26.17323 25.01219 24.27266 24.31083 24.96499 25.14957 25.51336 26.76763 25.79356 24.57012 25.47967 23.40048 26.89725 26.61720 24.12135 26.21694 24.74460 25.23905 24.97308
25.14788 25.45191 24.36313 26.87886 25.11720 23.32144 25.32896 24.83399 25.09307 25.03657 28.34777 25.12518 25.03790 26.45758 25.17609 24.94074 26.37557 26.27081 25.50342 24.55761 26.34467 26.07244 26.25163 28.45659 26.61261 27.58896 25.66330 30.00818 26.44094 25.75753 25.96523 27.24139 29.94873 30.90689 32.04930 29.53037 29.12217 28.22651 27.40942 27.28995 32.10424 34.75364 40.96972 43.86156 43.67310 39.62066 35.84628 33.44329 32.84650 31.05153 36.01769 40.74960 44.72306 52.13023 53.31449 52.14432 48.32902 42.02490 46.90483 50.43646 49.47201 46.95053 41.37264 37.77507 38.13567 38.55722 50.86884 56.51222 58.16879 54.21071 47.33203 39.63255 33.12192 31.41714 32.45104 36.19894 40.32998 45.20657 47.27087 46.23931 49.82594 51.57992 49.51025 43.50315 41.24411 32.98381 30.93890 29.74996 29.82698 29.07839 31.81827 34.28190 30.66108 31.17071 28.33686 29.02792 26.09638 24.22351 27.60352 27.22153 26.19626 26.97968 27.38107 25.45715 24.59899 25.53643 24.59945 25.84620 24.31925 25.66266 24.64951 26.06709 25.68969 26.11212 24.70275 25.90525 26.91438 25.30408 25.83116 27.06363 24.36509 25.16617 24.33168
24.52120 25.36699 26.73755 25.02625 28.08128 25.30901 24.87072 23.93063 24.33286 22.80893 25.51101 25.40790 25.21720 25.67754 24.78897 25.15816 24.51548 24.42365 27.68556 24.73362 24.17323 25.00780 26.66875 27.53991 26.01207 27.79409 26.65274 27.19247 25.78950 25.12772 25.84054 27.55686 28.92554 30.99868 29.59216 27.10742 28.36077 27.32165 27.95611 31.67521 34.06047 36.73856 40.64211 42.24684 41.35336 36.84581 35.03115 30.03892 28.44623 29.37985 34.51164 39.36169 45.80611 48.65330 51.40619 49.84939 43.36370 39.42613 44.99433 48.06334 48.21716 42.69777 38.62407 34.07902 32.90917 40.08866 47.71916 55.90647 55.67283 51.63101 46.12955 40.96544 34.51977 29.03457 29.50395 34.61923 36.96564 38.74416 44.61372 42.24482 48.39875 47.71277 45.58504 41.97605 37.74532 33.19843 30.62592 28.00986 27.88994 27.37285 28.70110 31.67697 32.01197 30.29393 30.60843 28.22502 26.71820 26.51077 24.55934 26.34217 26.59044 27.28588 24.55121 25.50530 26.42214 28.45780 26.39143 24.10149 24.89645 26.69710 26.75493 24.92224 24.58481 25.98813 24.92901 24.85543 25.41132 25.33587 27.08131 24.02878 25.81198 23.90509 25.29627
24.18828 27.48078 24.78928 24.33093 26.88527 25.56677 25.27384 25.55684 25.32538 24.53454 24.96781 24.61551 23.91237 23.88447 26.78862 25.04167 25.58045 24.82675 25.06068 23.50209 24.88586 26.11619 25.93430 26.24085 26.22672 27.04338 25.89207 27.46688 25.71943 26.35287 26.19683 27.78185 27.96276 29.04118 27.51682 28.23078 26.30502 28.16523 29.86822 30.85299 33.99228 39.03579 40.69342 38.83031 34.77577 33.02298 30.83587 27.85934 29.79499 28.97176 35.39693 38.01847 42.61576 47.76141 50.09172 43.61223 39.84145 37.17271 40.67681 46.92897 44.31197 41.56670 36.67023 32.86450 32.58875 41.36547 45.14267 54.63543 53.65354 49.26409 44.55875 39.09639 35.76986 31.18143 30.55057 30.77098 36.28697 38.91074 41.41138 38.59070 42.06549 45.29069 43.15551 39.87208 35.05600 33.83599 29.72995 28.93094 27.56719 26.63159 29.84591 31.30458 31.06399 29.95104 28.24587 27.17280 27.26050 26.81213 25.35221 25.90226 27.05441 25.54203 26.33623 27.22485 23.80834 24.42706 22.88040 24.75502 24.97194 24.62480 27.66670 28.47361 26.05850 25.77240 24.69134 27.35601 24.81588 24.29103 25.16774 23.45581 26.09506 25.86105 23.93664
27.96854 23.17039 24.28016 24.43901 27.05545 27.27429 24.22708 25.12418 24.95371 25.83885 23.76602 24.64981 24.31661 23.96472 26.14701 25.48236 24.90597 27.25042 26.24226 26.38349 27.09696 24.93109 27.19565 25.42203 26.27677 25.38483 24.61421 24.70036 26.02434 27.05638 27.02779 26.87124 27.50312 28.87991 27.15522 23.95191 27.57112 29.38016 30.74980 32.67618 33.91043 36.92659 40.68804 36.99595 32.34556 32.95074 28.62883 27.44088 27.89195 30.32322 32.65089 39.32624 40.73833 45.42600 42.12328 41.26096 36.82130 36.50556 40.33240 40.51132 42.67070 36.59081 34.10078 31.43259 37.26344 39.26476 42.91355 49.18347 50.15900 45.00368 38.03771 39.12597 32.04748 30.14732 29.65781 31.16223 36.72142 35.86496 39.24325 35.95754 39.09897 40.77397 39.77340 37.75031 34.00322 29.47035 29.62262 28.96701 26.21717 27.18474 27.03522 28.49727 27.94521 29.97396 29.66585 27.91931 27.95355 25.31231 27.54964 23.43903 25.54357 24.37024 25.56201 24.77451 26.72955 28.38421 24.70899 26.12170 25.78823 25.70143 23.89729 24.46904 25.45297 25.37442 25.08749 25.04486 26.44027 24.29331 26.58398 26.50654 26.12911 25.94536 24.47175
25.52063 27.10814 25.08226 26.17636 23.66723 24.93925 26.60055 24.46346 27.60929 24.33094 24.51627 24.59471 25.29419 25.02706 25.35321 25.50578 24.62376 25.34184 24.98086 25.17483 26.34070 27.72107 25.55956 26.49695 24.64379 25.40532 25.71432 26.43109 24.91474 25.67431 27.71418 27.75495 27.68378 25.43789 26.77147 26.15883 25.97094 27.85361 34.19475 32.54526 36.15648 37.09601 35.20735 35.11899 30.96505 29.88059 28.96052 25.95947 28.02456 30.23564 30.80545 37.11450 42.18177 42.71620 41.88064 36.15086 32.57007 33.70304 36.86247 41.17978 37.04964 33.71232 32.92608 31.83396 33.97375 41.13097 46.68110 49.37941 45.65861 40.05616 36.41904 34.34676 32.79222 28.46396 27.76378 33.16208 35.32456 36.19856 35.29741 35.24952 35.44512 37.29569 32.90543 35.79941 33.24303 31.82828 27.33724 27.30544 25.71783 27.22474 27.63298 29.24563 30.08577 30.52278 28.02498 28.48271 26.84727 26.11620 24.85261 24.92561 25.60738 25.07583 26.30622 24.75454 24.17860 26.50191 25.34928 24.09047 26.75907 26.07217 27.47023 24.70745 23.49473 23.97522 24.46289 24.50422 25.66929 27.05830 23.74653 25.93625 24.67928 25.55028 24.67549
26.13803 25.81364 25.43059 25.86610 27.89087 26.51564 25.95731 24.06004 25.37089 23.89021 24.50337 25.25582 27.03489 26.94988 26.30337 24.45946 26.57983 27.80586 24.85590 24.60486 28.11549 26.64120 25.84874 26.51840 25.57022 28.01854 25.86724 25.47126 26.57801 26.34785 28.42910 27.40879 25.92606 25.13679 25.64353 26.47709 27.53128 28.70096 31.13954 31.58828 34.08475 36.24158 34.57947 32.45099 31.56196 29.03659 29.57132 26.30492 28.84182 28.98420 32.60763 36.03616 40.09240 39.87409 40.08241 36.18992 31.90438 34.51598 36.99353 37.30011 35.95980 34.77586 32.29906 30.00315 31.56702 36.34083 41.47367 48.21041 46.29585 39.39266 36.27981 31.03162 29.95162 28.83384 27.08172 32.49080 31.69279 34.80876 32.66813 33.80119 32.65129 31.74206 30.72629 32.14973 34.63311 30.76420 29.23279 26.87650 27.44617 27.29286 26.22662 28.04631 27.20609 26.94061 28.65100 27.11607 28.02539 26.18746 26.69636 23.04963 25.00846 25.37702 26.17590 25.67464 26.50595 24.56936 25.14486 25.04319 24.23249 25.08213 24.93213 25.62531 24.55237 28.57188 27.04446 26.44496 25.28848 24.71166 24.34926 25.27480 25.31465 24.58785 24.23889
25.63588 25.26419 24.63314 24.72821 26.24886 24.55068 25.29105 25.79567 23.51540 26.89265 23.97197 26.23375 25.19715 25.19543 24.53223 26.05535 26.06266 25.94698 25.84955 25.53882 26.33444 26.32388 27.46706 24.98985 24.68647 24.81722 25.06019 26.68589 24.06363 26.85324 24.55471 25.88835 25.92063 26.22338 26.99367 25.72261 25.79739 28.70378 30.14601 33.13445 35.89583 33.82652 33.59366 30.72028 30.52302 25.50708 26.39565 28.78276 28.94524 28.32694 32.80757 37.28211 36.92160 36.32986 33.77830 34.06349 30.97125 32.73978 33.53783 35.65117 32.68857 30.72788 29.12101 29.22764 35.37212 35.60813 43.50583 44.31158 44.22846 39.97459 37.48799 32.66953 29.02365 27.12037 26.48238 30.92399 31.71220 32.50773 34.25843 31.05796 29.21475 33.17467 29.40526 32.09417 28.83557 29.13377 28.54016 27.19186 27.46416 25.91992 25.91062 24.62006 27.29599 26.62473 26.21338 29.06894 26.00096 26.67256 26.03914 27.55769 26.91276 26.18148 24.28990 24.81088 23.26781 25.46220 26.23769 23.48761 25.36631 26.41909 24.91614 25.35733 26.77178 25.35712 26.80459 25.22248 25.30444 23.60779 24.76395 25.38430 24.11129 22.23429 24.46420
26.24325 25.44315 24.16361 24.83372 26.20787 25.36783 25.98256 24.94180 24.04303 24.65811 25.44864 25.85287 23.90918 24.65843 23.15658 25.82879 25.40434 26.40891 26.66853 24.47919 26.72142 26.02894 25.78965 24.56248 25.32643 26.04091 24.49970 26.43382 25.79332 24.71580 26.24978 26.33643 27.39553 25.16398 23.76135 26.90277 27.41626 28.23594 29.22366 29.60929 31.31678 32.90311 30.82360 29.40328 27.57796 25.71082 28.55266 26.84645 29.29930 33.92925 35.30177 35.66545 36.97643 36.19977 33.27286 30.63668 30.00505 30.75614 33.12989 33.73149 32.62943 29.22674 28.55866 30.64630 34.89209 36.42471 39.27337 45.15676 44.59713 41.49954 36.45435 36.93601 31.31050 27.76441 30.57002 27.39305 30.42829 30.08218 31.89404 33.49900 31.25842 28.36257 29.07998 28.03421 30.82739 28.38257 29.83923 27.37253 25.59297 25.50996 24.43205 26.34221 26.70900 27.49361 26.53649 27.19401 26.65880 24.55202 26.33311 26.48755 25.31546 26.06816 25.30369 25.44875 25.54989 27.42472 25.06840 25.62208 25.86877 24.08095 25.80891 25.24707 25.40293 24.94828 27.13998 25.49072 25.89450 25.61004 24.90917 27.04368 24.75507 24.11909 25.38092
24.34890 24.08885 25.18958 24.03654 25.78030 24.72111 25.32565 26.75117 25.86321 26.13633 25.39821 25.49431 26.81988 25.61422 23.09952 25.31048 26.11541 24.69687 25.24979 24.91769 23.31842 25.84281 26.43791 25.98844 24.12926 24.61097 25.32180 24.79967 26.46132 26.44353 24.98173 26.38557 26.48151 24.41571 26.56501 23.39555 27.78021 28.41112 27.57993 30.73506 31.00279 30.45877 30.28279 30.37097 26.91934 26.26897 26.18762 28.37284 28.20705 29.97568 34.33970 36.01669 35.77576 31.52977 29.28669 30.07741 26.56771 30.77662 33.73686 30.29168 29.81799 28.43922 27.31456 28.38094 32.42275 34.91926 39.90239 42.10618 42.60103 40.97609 36.03643 30.43167 30.22868 29.73602 27.04077 25.71340 28.15513 30.62983 32.34581 30.92601 29.84528 28.92446 26.10609 29.98982 28.69436 29.86832 28.19264 27.57282 27.49129 24.98274 26.41790 26.22900 27.34625 26.52851 25.17904 25.38153 24.88690 25.51480 26.60464 25.18983 24.30652 24.23740 25.12184 25.51609 26.83940 24.69601 24.93855 26.04977 25.50360 26.65819 26.85243 25.28737 27.42921 26.56077 26.65793 24.78089 24.92058 25.78248 23.52561 25.42035 24.75323 23.49799 25.24756
25.54563 26.71985 25.16144 24.80533 24.10002 24.32731 22.61116 25.12980 26.65646 24.92374 24.54042 25.48357 24.84020 27.39080 26.12869 25.53295 24.49936 25.72379 24.87402 26.89227 25.18647 25.21619 25.66007 24.78663 26.97448 24.52499 24.76718 25.36866 25.96074 24.41746 26.12280 25.94498 25.83002 25.67719 25.92064 25.40636 25.28269 26.44392 27.74759 26.27617 28.67826 30.24494 29.70442 28.07329 26.44413 25.25423 25.87123 27.84497 29.38443 31.39124 30.24520 32.52853 32.58535 31.76009 29.05385 27.09039 30.23321 30.27500 32.13194 31.33560 30.87859 27.35582 29.41167 30.30690 33.37825 35.30077 40.55710 39.69139 36.99276 36.48825 35.33103 31.23830 28.83330 28.28510 26.46813 25.40572 26.91522 29.39291 28.86276 32.34183 29.19271 28.65000 28.24726 26.16402 27.65132 28.95673 28.75512 29.97600 27.29624 25.29491 25.27067 25.70336 26.47155 25.88925 26.07751 25.22041 24.34643 28.53667 27.88212 24.06033 25.03009 24.23466 25.71361 23.63137 27.22500 26.19233 23.34901 25.06503 24.28249 23.98894 26.41317 25.60468 23.10941 26.02136 24.97991 25.81211 25.19324 26.20735 25.12764 25.37379 26.32976 24.17669 25.63441
