25.75511 25.09121 23.34724 24.69681 26.05824 23.80382 24.91279 24.75211 24.33911 25.15168 25.14331 25.69871 25.97668 24.99692 23.98767 24.42233 24.86119 25.00022 26.06890 25.64289 22.46880 25.63713 23.48341 25.88421 26.41166 25.11444 26.19028 26.62062 25.84569 24.44435 26.08554 26.73345 26.47501 24.81055 25.36245 25.13343 26.09767 26.58496 24.89567 24.04005 24.48522 27.08014 25.45315 25.91655 24.53237 26.16358 26.27266 25.60472 25.22912 25.73777 24.09032 26.55524 25.03156 25.23066 26.53119 25.71683 23.82585 23.55195 26.82954 27.06284 26.26677 27.60906 25.56171 24.96786 25.54865 26.44826 27.41081 25.44541 26.27022 26.54244 27.44983 26.18815 25.05623 25.13582 25.81995 25.18701 27.68682 27.03784 25.32929 25.42807 24.65523 24.37167 26.20153 26.30185 26.26228 25.46369 27.32333 26.64527 27.33906 26.12894 24.82115 26.76837 25.96444 24.37289 24.33902 24.22774 24.09283 27.02757 24.82487 24.84880 26.55603 24.98703 25.26509 25.99286 26.94428 27.37723 23.86265 27.29642 26.11157 25.93336 27.21499 26.88859 24.64694 24.86037 23.11352 27.26539 25.87241 26.96242 24.61676 26.61425 24.03437 23.32358 26.13495
25.86577 26.94902 24.97863 26.20596 25.32440 25.87072 23.27727 26.48076 23.99361 26.27820 25.11602 27.27112 25.53895 26.99827 26.16668 25.98817 25.90404 26.35689 25.84905 26.09464 26.48200 24.70060 24.62965 24.16712 24.36005 24.33336 24.34044 23.86868 25.43809 26.84257 26.12533 26.03829 25.90963 26.32779 25.00414 26.30218 27.21349 25.28790 24.58319 25.84047 24.48763 25.05908 25.52758 26.06318 26.60272 26.31025 27.13158 26.99623 25.16164 25.82213 25.60911 25.14146 27.13876 26.51447 26.09151 25.90936 26.19241 26.08213 28.72059 26.04643 27.75016 26.05832 25.96172 24.61463 25.11731 29.10571 28.95306 25.98562 26.49291 25.91999 26.75413 26.56154 25.38631 23.87403 27.09983 24.47061 24.84902 26.86509 24.81608 27.47394 25.17924 26.55436 25.81882 24.99797 24.89352 26.94391 26.23165 26.98233 24.65061 24.53970 25.37669 24.72981 22.96577 25.56871 25.06356 27.16734 27.18164 27.31742 25.86397 23.74479 25.72842 27.14834 24.55317 25.02950 25.61028 25.58453 26.17013 26.54949 25.42183 24.40828 26.30205 23.44329 22.95182 24.42510 24.59665 24.06151 24.61258 25.33631 24.40335 24.26323 23.55771 24.86235 26.22240
25.33450 26.17553 24.49598 26.42576 24.52026 24.70141 25.68763 25.44489 25.73646 25.25805 25.50583 26.16271 25.96926 27.12282 24.98344 26.48587 25.51637 25.49737 26.38936 25.06146 26.52071 24.06915 23.64358 25.87245 25.12040 25.30867 24.89729 25.72211 24.38498 24.80416 25.81287 25.91339 27.66465 26.45077 25.67952 25.39436 27.27730 26.88221 23.10682 26.35254 26.23452 25.56431 27.03751 24.84861 25.61075 25.91728 27.17940 26.21785 25.94456 27.04361 27.34572 25.66328 27.12333 25.15490 25.33416 25.66052 25.51312 26.43482 27.00511 28.48428 26.21555 24.89955 26.30563 25.78309 27.45178 26.26877 26.72123 27.47896 27.34546 30.33211 27.57624 26.00705 27.66944 23.89088 26.81671 25.75301 25.79560 28.78003 26.24206 27.20148 26.44292 26.63398 24.17600 26.02838 25.20989 26.80133 24.06979 27.20576 24.52632 23.94152 23.00028 24.20010 24.36239 25.29408 22.99187 24.73563 24.50948 27.09163 23.77892 25.27313 23.31677 26.12613 24.26478 24.62097 24.39020 24.59665 25.05106 25.53549 24.84747 25.07754 26.31381 27.24672 25.15105 26.29204 24.69246 25.13791 25.63089 26.08463 26.42709 26.05043 23.08188 24.18246 26.03575
25.79542 24.66987 24.68661 25.58428 26.34732 24.05276 25.83287 24.03386 25.31423 26.30987 25.93504 24.80931 27.03648 24.64524 24.57821 24.16706 23.63861 26.54311 26.99034 22.66368 26.19560 27.16804 24.19476 25.93522 26.46512 26.74475 25.27437 24.12393 26.47466 24.68650 24.97466 26.04557 25.76838 27.16698 25.51961 26.09825 26.40829 27.03400 26.91317 26.93134 25.74528 27.05419 23.28226 25.30669 26.64953 27.15318 24.79308 28.09392 29.32416 24.64741 25.86454 26.69115 24.29186 27.23077 27.39772 26.33954 24.52713 25.22889 26.50620 26.77722 26.18425 27.98574 24.49658 26.78413 26.44167 26.93311 27.21094 28.08094 27.59806 27.54275 26.05654 27.64281 25.54330 25.42930 24.99877 26.36389 28.91350 27.08552 25.34244 26.45433 26.32199 27.29506 25.58044 25.44461 26.53100 26.85104 26.37284 28.62960 25.77260 22.65106 24.77392 24.78819 25.44154 25.73449 25.04221 24.12347 24.76933 25.09603 23.84002 24.03134 25.53462 26.79055 26.49077 24.75128 25.03416 25.01700 25.55099 27.37752 25.53554 26.12577 25.34031 25.99201 24.53320 25.04264 23.52440 26.55403 24.93456 25.12162 25.86461 28.54508 22.79694 25.25419 24.19628
23.52124 26.45817 23.85436 26.66066 24.48347 27.13413 27.20290 23.26488 26.34016 25.30146 24.87484 27.95216 25.93670 25.51228 25.70707 26.12810 24.79234 25.66353 25.84253 23.66614 25.39073 24.74590 27.35258 24.39882 26.25676 24.75850 23.94187 25.77420 26.13693 22.79811 26.01123 24.58303 24.97765 26.44662 25.28896 25.44057 25.03063 24.00938 26.15113 25.41443 26.62015 26.01850 26.05989 25.67161 26.53358 26.90822 26.19016 27.83398 29.12101 25.78365 27.68871 28.44945 26.67815 27.18147 27.56878 26.13056 25.62946 28.07475 25.65321 29.65648 28.32231 29.34137 23.62501 25.48583 29.28499 29.26990 29.31419 30.29852 30.95082 30.31477 25.46063 27.35889 25.48637 25.78562 27.60211 28.26619 27.65512 28.49569 26.91172 26.98038 27.04571 25.26709 25.71284 26.86539 25.81492 27.79559 25.00666 28.00154 27.16761 27.62016 26.76391 23.34605 26.21179 25.99707 25.73266 26.14628 25.02089 24.87588 26.45345 27.07035 26.67172 24.09464 24.37560 26.68754 25.36230 26.61136 24.73177 25.93608 25.22006 25.36638 23.65993 25.46380 26.25558 25.65008 25.35529 26.93798 25.13796 25.77990 26.02846 24.30524 25.27749 25.54152 25.81911
24.04956 26.15488 24.55216 25.58142 23.16224 24.08354 25.60078 25.83911 26.29958 25.14826 25.36669 25.83694 24.58736 25.72217 24.34456 25.34839 24.56274 25.98943 24.73161 25.02546 26.61110 25.10390 26.93000 27.28234 26.45056 24.76262 24.05258 25.53231 26.10726 25.78145 25.13470 25.76620 24.92967 24.17046 25.39556 26.26476 24.70492 25.61853 27.91874 27.74087 25.35736 26.24099 26.57730 25.05748 27.98423 26.80270 28.91676 28.18016 26.74020 27.78717 27.75368 28.23110 27.49067 28.67355 27.07220 27.20179 25.76000 26.54273 26.53443 29.81437 28.04955 27.74906 27.26295 29.89610 30.73650 29.53838 32.72873 31.66035 31.03568 29.92972 26.81584 25.54315 25.91322 26.79170 25.92908 28.12263 28.05691 30.04526 28.96269 27.80631 24.91224 26.10366 24.88297 27.38471 27.39430 27.80246 28.24017 26.95201 25.41791 25.02437 24.03441 23.71543 26.46949 24.76942 27.53039 25.88667 25.83532 25.23408 27.12119 24.67935 26.34271 24.80431 25.21596 25.92743 26.57871 26.37586 24.96597 26.98737 23.72511 23.17898 23.09646 26.28091 25.16510 26.20028 25.39726 22.92380 26.31881 24.29098 26.11330 23.69626 25.98232 27.10515 26.23641
23.21430 26.35960 23.24479 24.03193 23.97499 25.86456 24.94475 24.39992 25.66824 24.00424 27.17819 25.95528 25.96359 26.26186 25.26794 26.31088 25.21538 25.94082 25.20305 26.57491 26.19771 23.99762 25.35558 24.60834 23.80105 24.55262 25.18701 25.65180 24.62294 25.01780 26.62791 25.00738 24.40548 25.26066 26.11471 25.23886 27.52037 25.87529 26.67293 26.45213 27.22986 26.41659 24.12519 25.63166 24.73856 26.84773 29.99107 29.13782 29.59813 29.16301 25.54525 26.34605 28.72140 28.18367 30.22154 24.91855 26.98563 27.33708 26.63761 28.83290 30.34694 28.15819 27.01111 29.09061 30.84010 32.54509 33.59678 33.14195 31.71296 28.86628 27.84899 26.47041 25.62814 25.56749 24.28811 27.13188 28.26459 30.26479 30.01356 28.89180 29.41887 25.91635 25.32002 27.21629 27.46659 27.48466 26.43366 26.16142 27.27623 26.38019 27.16550 25.36224 26.00564 23.71323 24.88796 26.54498 26.37915 25.98527 25.16551 25.46937 25.38283 26.04463 22.68101 25.76780 27.26343 24.67964 24.88311 24.27478 25.59654 24.86653 25.73999 25.04387 27.24051 25.65227 27.13460 25.00979 24.77684 25.04952 26.46022 24.94415 24.75270 26.14726 26.04285
22.23265 24.11639 26.12407 24.98421 26.03402 26.70681 26.00415 23.99713 24.77221 25.03963 24.49769 25.59058 25.02898 25.51594 25.03592 26.13851 25.48379 25.56243 24.23498 24.29883 26.89203 26.25446 25.96144 24.52052 25.17077 26.91769 25.72671 26.34655 26.78227 25.94822 24.73096 23.86260 25.40970 24.88598 25.85970 26.02764 25.43242 25.51333 26.48416 28.33887 27.97639 27.54962 24.63382 27.06212 26.92981 27.83775 29.51781 27.79530 28.64325 30.98402 28.40430 29.70828 28.25607 29.68503 30.06132 27.71435 25.76190 27.93788 29.31220 33.61023 32.61457 30.02830 28.85489 30.42869 30.54842 34.38657 36.26263 34.87733 29.97973 29.17584 28.83648 27.01380 24.45439 24.14680 27.97297 29.59696 30.12262 29.07866 29.51163 27.90871 30.69546 25.47094 27.95703 28.22288 28.88518 30.47916 26.65641 29.24489 27.33757 25.65109 26.71736 27.59690 27.14803 26.52411 24.74763 24.19852 24.61986 25.00512 25.53470 25.64816 25.34771 24.36486 26.50786 25.51370 24.40859 25.51144 26.04016 26.73054 27.38813 25.50037 26.27556 27.55441 25.19802 25.78883 24.43388 23.97608 26.13281 25.71938 26.50147 25.46844 24.32664 26.28642 25.38455
26.21677 25.78648 26.31510 26.00122 24.52694 26.15139 24.33136 23.66682 27.67143 24.96937 26.13050 25.12963 23.77839 24.88451 25.38182 24.80479 26.32879 24.07624 24.83804 24.69086 23.71942 25.25416 24.41110 25.58416 24.97368 25.21906 25.02303 26.08857 24.56642 26.08968 26.16744 27.07645 26.80805 25.31564 24.83500 24.93195 25.91860 26.71903 28.34540 28.77607 29.11724 29.93614 29.18244 26.66596 25.24734 27.21189 28.55991 31.64387 32.76008 31.68490 30.47707 29.88443 30.45843 31.70142 33.88730 30.69589 28.13464 27.59673 30.13513 29.86741 32.44421 29.25344 28.71464 30.44090 36.41300 38.60002 38.67506 35.71530 29.61807 29.51333 25.94439 25.44811 24.56332 26.15591 26.28619 28.38755 30.88788 32.52477 32.36984 28.22888 28.57382 28.52704 27.94174 30.03070 29.12548 30.38513 26.57460 29.54466 26.80879 25.50507 25.52214 24.25533 27.15942 25.45794 24.11934 24.05665 25.35295 26.46166 25.49053 27.07782 26.25316 25.56261 26.20927 24.89663 27.13185 23.95177 24.16888 26.59692 24.47118 23.35204 24.26239 25.63145 27.03416 25.58467 26.49039 25.83697 23.97982 25.62918 23.83711 25.64456 23.81097 25.92212 24.90656
24.11312 24.03513 26.15416 26.13657 26.09682 26.20904 26.12080 26.78035 25.67541 25.20185 26.29818 24.29701 24.51601 23.69540 26.44223 24.91221 25.04856 26.84103 27.31836 23.89859 26.20452 26.48680 26.74670 22.87983 24.83603 25.52881 25.12335 24.80619 24.79617 25.07564 25.76773 24.34772 25.84001 24.62548 26.13323 28.12441 27.68939 26.39456 27.92283 27.75390 29.87780 27.87720 28.57995 27.30259 27.29427 27.63170 28.17087 33.74349 35.35213 35.64927 33.66254 32.98152 30.72038 33.83303 32.71451 30.90855 27.91413 28.81110 31.33822 32.76758 33.63623 33.84333 30.31676 31.70150 36.14730 38.66122 37.61512 35.36407 30.98461 27.89670 27.35616 27.08213 26.37876 26.72918 27.95206 28.19072 31.21640 30.75192 32.60335 31.02342 29.03219 27.70573 28.77519 32.66856 31.87428 30.30786 29.79749 28.75161 27.70125 28.14063 25.75459 27.09377 25.81023 25.84153 24.34742 24.97021 27.84604 26.14429 25.15792 22.91916 23.75693 25.17686 25.62072 25.57977 25.45181 24.93159 24.98408 26.20826 25.45327 25.62037 26.51574 27.88445 24.69823 25.92959 25.13112 25.82377 26.44146 23.53318 27.07594 24.60024 24.72293 24.74308 25.83864
25.96760 23.82268 24.29040 25.88100 24.42959 25.36455 24.84164 24.16724 25.42281 25.93099 24.97074 25.22268 25.06097 26.26874 25.70306 26.80968 23.84836 25.17294 25.46483 24.86737 26.42232 26.42326 25.00652 23.59599 27.20026 25.91750 26.11607 25.42721 25.65176 23.13319 26.90214 25.46162 27.15214 25.65860 26.64330 28.38607 28.02195 28.66756 29.15169 30.10504 32.03519 29.00310 28.63959 27.97601 25.95735 29.58699 29.09677 35.35281 33.62027 38.02352 36.88931 36.60433 36.28550 34.80651 34.59626 31.44804 28.61472 28.31481 32.79711 33.80001 37.16885 33.58639 32.30329 35.51931 37.39336 37.84504 40.40149 34.94303 31.18858 27.33543 27.43116 26.60521 27.64573 25.46064 25.07641 30.86843 28.76672 33.42098 34.07571 33.46959 32.87144 29.91089 33.76763 33.24598 34.10754 33.99465 29.42035 27.87319 26.46265 25.45837 24.43412 26.76883 24.61649 23.91609 23.43665 26.35416 24.41099 26.49785 25.14037 25.63486 25.79239 27.65310 25.24273 25.14489 26.07298 25.01932 25.63388 27.51314 24.77759 25.41441 25.49831 26.01797 25.91900 24.30383 24.82903 24.74253 23.59153 27.46287 25.56087 24.26196 26.50032 23.53867 26.34196
25.02691 24.85122 26.08127 25.87174 26.27616 26.06736 24.83092 25.60794 26.79115 26.57057 24.42120 25.59983 25.43800 25.10048 24.92792 23.90401 25.95339 26.77699 24.56591 27.90053 26.68939 26.16447 24.75959 25.75008 26.25618 25.32771 24.73298 25.21579 23.00229 26.49077 26.63791 26.40887 25.15832 26.40797 28.16279 26.41868 29.87596 28.99352 28.66152 31.00459 29.52530 30.72333 28.46479 27.61791 27.67998 25.44175 31.38959 34.53984 37.60625 39.49345 40.08698 39.29809 37.29410 36.42071 36.35895 32.38515 29.68166 29.54011 31.76930 36.54200 37.97272 36.40861 34.92975 35.34800 36.42798 40.30867 39.67069 32.86870 30.45640 27.95911 28.45721 29.28578 28.28623 27.85837 26.92270 28.56267 31.48996 34.96298 36.14720 34.78483 34.39491 32.91828 33.61181 35.60667 33.07816 30.12668 29.46637 28.21971 28.89394 26.88533 27.15705 27.19185 25.33636 25.99722 27.19230 28.36432 26.64374 27.42672 24.24499 25.56195 23.56129 25.99868 27.48875 25.75790 26.56265 25.92046 24.85647 25.16596 24.22913 25.55919 25.11791 25.50939 25.65798 23.74189 25.96819 22.37437 26.43252 25.24938 24.83865 24.43353 25.38133 27.07715 26.24671
25.18943 24.62594 24.70174 26.05651 24.88333 25.24242 25.34813 23.37679 25.31662 25.36961 25.41938 25.90945 24.72645 26.76461 25.02983 24.41129 25.60165 26.61713 26.53863 25.63704 26.03831 25.11786 24.28373 25.82088 25.24233 25.17591 26.78215 24.86782 24.81193 25.90201 27.07672 25.67302 25.45904 25.48117 26.63732 25.88622 26.50235 27.83551 29.38164 30.32935 30.90967 32.52581 30.45666 30.44607 26.05638 27.69595 29.72859 34.66901 38.13948 42.20190 43.61826 41.04821 40.74475 41.41696 35.53407 33.74390 29.47559 32.36522 34.05674 40.93736 40.93876 39.78281 36.13718 37.07358 40.13618 41.05935 38.99915 33.67502 30.04827 28.82559 29.00337 32.43177 30.46477 26.82433 28.42615 30.29313 31.15569 35.94800 37.88092 37.44951 34.30425 36.34751 36.74591 37.65380 33.71003 34.16628 31.91805 30.91511 28.08858 26.04307 24.27641 25.58493 26.60537 24.27302 24.69519 28.77902 26.85423 27.21603 25.24783 26.02831 26.74640 27.16491 25.08346 22.28124 24.25806 26.44973 25.50083 24.80258 24.25672 26.24294 26.23559 24.58320 24.23818 24.78335 25.33327 24.21579 26.20097 25.12777 25.02927 25.89828 24.55731 26.32567 25.13940
24.96212 25.19609 23.94449 24.89132 24.56833 25.43993 25.49099 24.57326 24.52993 25.24954 21.06101 26.18278 27.22616 25.28085 24.62082 26.11895 26.93461 24.31160 27.84239 25.49435 25.01369 24.13134 25.26451 24.26353 26.46037 27.32355 25.70844 26.08554 24.43777 25.57735 26.98960 27.23282 27.99163 25.57887 24.71570 27.73844 27.31055 30.56975 30.17823 34.67760 32.99168 34.26949 32.93872 27.84750 26.91962 28.44924 29.77927 35.13287 37.32405 44.75397 44.55742 44.63588 45.53969 43.06530 35.91802 33.79520 29.93308 32.50277 36.41258 41.20250 43.42361 41.90924 41.52572 40.57220 41.13420 40.84511 37.31627 32.08063 30.16580 30.91536 33.23181 34.46346 32.29930 31.65912 29.74111 32.31621 33.11935 36.88695 39.12025 38.22895 36.87560 42.39885 41.39607 41.92747 37.90315 34.80775 32.28294 30.46348 28.95859 27.38683 27.91152 25.29331 26.30435 25.39415 28.63555 28.54971 28.20559 26.47850 25.62600 26.41852 26.36103 25.97049 26.29403 24.74978 24.55566 25.34985 24.30242 27.27262 25.03263 26.16371 22.78013 25.36768 26.25352 26.20910 25.72388 24.79103 25.11787 24.75967 24.70542 25.49883 26.05994 25.58864 26.67052
24.94929 23.96950 26.14483 24.35374 24.13875 26.35708 25.85061 24.71426 23.71776 24.34847 25.55828 25.29381 24.90316 26.39136 25.41211 25.15057 23.30691 25.47198 23.17493 26.43512 28.23910 24.68442 24.89894 25.19756 24.51008 27.51487 26.98253 25.23281 26.75952 27.34940 27.86456 26.83839 26.54801 26.08192 27.39300 23.26535 27.55578 27.86248 31.03857 31.76863 33.23844 35.22565 33.65186 29.70277 29.88305 28.70530 32.06817 36.01373 40.28090 44.73807 47.51030 46.18127 46.54647 43.92790 37.57668 33.24046 32.73647 34.47960 40.51425 43.44495 45.59125 44.61240 40.69737 44.28508 41.04782 42.99449 37.46777 34.78287 31.06327 30.19141 31.25863 34.22222 31.81942 29.38532 31.16848 32.25491 35.28581 37.07051 41.28934 41.42615 42.09437 46.22785 44.83260 42.79753 37.48617 38.35122 31.28384 29.71602 28.40555 26.68602 25.27867 27.72796 27.54751 28.45910 29.74727 29.52117 27.62452 25.58217 26.50344 26.69636 24.97914 25.49032 23.62728 23.74115 24.24662 24.90836 25.46917 25.98727 25.18804 25.62189 25.48066 24.99832 26.74057 25.66248 26.60382 27.89544 24.21043 24.44860 24.05670 25.86757 24.52699 25.64276 25.79580
26.22434 25.18953 25.56915 26.80408 25.67896 25.79354 25.44917 26.06956 25.02730 23.69105 24.51193 24.67373 23.57821 23.38583 24.28853 24.43349 24.62166 27.32428 26.67251 27.06594 25.78451 23.85122 25.46120 26.58644 27.66606 26.63920 25.42603 26.01532 26.79943 26.00821 24.81697 26.48814 25.96774 26.42667 26.92269 27.67504 26.05927 27.92547 28.92194 33.63418 36.65319 37.46585 37.00110 31.73400 29.17462 28.07442 31.78451 33.39492 40.92935 44.05761 50.26691 49.61622 51.62691 47.20084 40.26999 36.26444 33.68911 35.82955 42.07284 48.16872 50.09611 52.10302 46.51442 44.83853 43.58362 41.37517 37.31537 32.28524 31.29695 32.09986 33.03987 36.43715 36.72924 33.67008 32.17185 30.94796 32.67913 37.87472 41.70566 48.74677 48.96444 48.54118 49.64214 42.50123 39.12704 35.76485 29.22908 29.41481 28.46786 25.47530 28.11933 28.61218 29.11197 29.86490 31.05171 30.49471 28.66687 26.87374 27.17236 25.19557 25.16396 26.53986 25.73912 26.84976 25.64133 25.77595 23.57970 24.73533 25.19561 23.97720 27.16112 26.40322 25.37172 26.33688 25.51370 25.46967 24.58247 25.27347 23.25082 24.21996 26.69441 24.11066 27.21846
23.97257 25.34504 23.52881 25.23720 27.15347 26.43408 25.37767 24.28112 24.67266 24.74127 25.55314 24.12940 26.72464 25.03470 24.33167 26.62975 25.63919 25.13345 24.48738 23.64217 26.30163 26.00112 25.08830 28.48820 26.30349 26.26553 27.30564 25.55780 25.79163 27.40203 26.23366 29.37041 30.35362 28.88215 29.50588 27.51770 26.56893 28.16246 29.63004 33.78587 37.96702 38.35829 37.30063 35.28527 30.35036 28.66441 31.97591 34.03134 40.64928 46.69831 49.61840 56.42889 55.13906 50.26741 45.31836 38.94425 37.31736 40.55714 45.35335 49.84194 54.78494 52.48337 48.94969 49.89404 45.37135 38.57694 35.28931 35.98091 36.92553 35.13962 35.80301 39.58531 39.94196 36.23365 34.38111 35.26162 33.11043 35.23333 42.35744 48.73696 53.19310 52.24699 48.02968 42.45628 37.45402 33.36294 30.01999 27.94421 27.36897 26.56798 30.08523 27.66024 30.17374 29.52371 29.05426 29.33682 28.18413 26.82082 28.43811 27.37125 26.16672 25.15332 27.24344 23.95651 27.08762 25.99459 25.27482 24.65958 25.45589 27.13561 23.93278 25.21783 25.83609 25.30873 25.68201 25.79844 23.15578 28.30552 24.65555 24.59451 26.70898 26.13388 24.20835
27.12914 24.56671 24.26801 24.28610 22.65467 24.56968 25.86837 25.43156 25.61866 25.88579 25.13470 24.53705 25.39489 24.93589 25.73018 25.04809 25.78232 23.09896 25.48790 26.68715 24.45044 25.58443 26.47426 24.08403 25.11566 26.63431 26.87823 28.64464 27.60539 27.51664 26.65687 29.93934 32.75164 32.09628 31.84378 30.03235 29.76033 26.46444 30.45705 33.38449 36.43084 40.23471 42.37272 39.01971 35.20011 31.49164 32.02523 32.92426 37.06170 44.36403 50.87948 52.77780 56.74461 56.99452 50.03074 43.02063 40.07504 38.08743 44.05978 52.88193 56.44284 59.19174 55.35340 52.25199 45.21743 43.22408 35.97857 41.47058 43.91171 42.17886 39.52536 40.72122 42.58378 42.60088 40.89502 37.49135 34.58728 39.67649 45.49528 51.99385 55.30593 54.28061 47.57807 42.67342 36.34804 32.07862 29.35363 30.73126 27.34594 26.97440 28.32311 31.27261 34.02301 32.60901 32.63326 29.98211 28.70306 28.87715 27.88210 26.50447 25.67023 26.14785 26.87245 25.34858 26.64756 26.50280 25.71549 24.59283 25.54656 25.19491 25.81636 25.60890 24.57809 27.06843 26.99890 25.26821 24.01948 24.85411 24.41932 24.45644 25.73556 24.37909 24.40673
24.84672 24.11756 26.27784 24.95289 24.41591 25.26107 23.10809 24.38001 25.75633 24.68925 26.16673 22.99238 26.43387 22.73661 26.17798 25.15906 23.91267 25.13903 25.55155 24.56495 23.38024 26.52363 26.55692 26.66499 27.14626 29.78183 30.09292 27.41837 29.46366 27.90385 29.38070 30.15540 29.41577 30.67310 32.65232 31.62420 31.01202 29.63312 30.02077 34.44794 36.65370 42.04538 45.14576 43.27381 42.74849 34.66786 34.03621 32.70224 36.94113 43.72501 47.47979 53.85364 59.96904 58.22854 56.08454 48.65939 43.53857 39.10761 45.85084 53.37115 58.22921 59.87222 59.73349 56.44651 51.56739 42.14626 41.66585 46.62327 47.78538 44.56034 43.20862 45.51967 49.99701 45.73057 45.40470 37.89852 37.92396 41.18072 49.70865 52.59430 57.58523 50.77236 46.95495 42.74591 37.68854 31.75894 28.82878 28.76216 28.21133 29.38043 31.07686 33.49124 35.41491 35.36711 33.39708 30.96462 29.33364 28.33606 33.42648 28.76223 27.56804 26.96776 25.79923 24.42280 24.96631 25.34406 25.44356 25.75750 25.58321 24.23447 26.04208 25.34513 25.25017 25.48979 24.53392 24.51412 26.56146 25.98301 25.12861 26.71490 24.50199 24.66063 25.48724
23.96705 26.00400 23.99460 24.38165 26.04585 26.20683 25.52053 25.63829 25.81421 25.50817 24.01070 24.33592 24.82131 24.79521 26.97371 28.02478 24.25642 26.25224 26.59806 24.09087 26.75359 26.54480 25.85681 25.62251 26.29182 28.38027 28.22423 30.63813 29.95431 30.03305 31.90811 29.22447 29.34211 31.92177 33.88249 33.88348 30.96837 28.77417 30.64396 33.19535 38.54560 43.75648 46.88163 47.29024 42.73507 41.56019 39.18190 33.50013 37.70428 40.45148 44.32564 50.82364 57.94936 61.65126 61.38472 56.62124 44.83715 42.66604 45.55970 53.55884 64.96566 66.89313 65.02371 59.02467 59.59937 52.31049 46.78197 50.62948 52.94663 51.63912 48.54920 53.66038 52.30217 49.54281 46.53381 38.57068 42.85374 46.93153 55.43789 58.22684 58.90732 55.50744 48.72802 39.54670 35.15756 31.17138 26.71535 26.99433 28.35497 32.74395 35.09886 37.29132 35.77312 38.55811 38.33056 35.34979 31.99539 29.82753 29.91567 27.62467 28.41804 27.05759 27.25536 24.84212 23.78854 26.01755 24.61327 25.59386 24.04042 24.83329 24.58905 25.57243 26.19852 25.41417 25.86077 25.57240 25.81230 25.15351 25.64156 25.48113 24.38767 26.00660 25.48029
26.06570 25.01075 27.35245 24.37923 26.98491 24.42124 23.01836 24.32148 26.31519 24.23027 25.26941 26.54867 26.53765 26.78215 24.46318 25.77679 26.41475 25.06716 26.37783 25.27045 25.06028 25.68862 24.49207 28.17371 28.12382 28.06097 29.00239 30.39016 31.83482 33.48703 31.97216 32.23963 30.14485 31.27000 35.02005 36.73058 34.21072 35.05265 31.76336 31.35307 38.24550 41.90985 49.13066 53.15361 55.42851 46.43783 41.84614 39.52299 38.13710 37.50612 47.34110 50.49640 58.79508 64.04871 67.09143 63.84973 51.92281 49.72878 49.31043 56.24011 62.40566 71.01943 69.29170 67.17145 65.39807 58.03980 50.38513 54.41087 58.54282 54.99636 56.48863 58.78867 58.69376 53.39451 41.52289 39.36297 43.99016 49.81665 54.24210 61.95602 61.30866 56.01975 47.23782 39.62161 37.19187 32.96019 31.74266 29.72562 30.26035 33.66149 35.68910 39.97569 41.30520 40.95689 38.52466 36.21491 32.38418 30.17955 28.66177 25.81952 27.36390 26.55336 26.88915 25.38755 24.80321 26.54743 25.17651 24.26633 26.68881 23.98461 25.41005 25.42396 25.12166 25.34004 26.06931 23.93883 25.74073 24.38554 25.97629 25.64362 24.46261 27.38587 22.96186
28.13679 25.60684 24.65279 25.99777 25.09969 24.86979 26.62161 25.29655 25.98553 25.60218 26.33698 24.12345 25.19841 24.26902 25.58195 23.90919 26.19941 24.79537 26.70872 25.04928 24.92816 26.17938 25.86688 27.14574 25.99552 28.04010 27.96317 31.21360 33.54104 35.39476 35.06869 35.13733 34.99044 34.77665 35.41722 36.85981 38.10313 36.16740 33.70668 32.69151 36.58042 42.32781 51.44010 55.30320 55.21077 54.32536 47.95459 43.68131 42.23175 38.57353 44.21899 48.01583 60.64993 64.88166 70.10481 64.38434 55.80616 52.94247 51.97470 60.80436 66.66067 73.48318 74.19269 70.32926 64.81845 59.14128 52.81902 58.26137 62.19024 65.53829 63.84155 65.25822 60.34183 54.67594 44.17306 42.33520 44.27745 52.18632 57.71595 63.04100 60.21409 58.22180 47.42259 41.72289 34.83960 31.96926 30.06270 30.42632 30.60813 36.45110 39.45985 41.41723 43.81874 42.45660 38.97365 34.94719 33.60548 30.49756 27.96603 26.42605 24.91047 28.64544 26.78027 26.25248 26.12733 25.24188 25.84064 27.21579 26.06155 24.69099 25.65414 25.56527 25.62077 26.77011 24.86170 24.47283 27.12663 26.83226 25.53851 24.72998 25.07302 23.94215 23.61381
26.30526 25.10673 25.19158 23.83256 24.96451 24.30037 26.58487 25.15134 25.38799 24.39142 23.73036 24.64568 24.15773 24.42328 27.56415 24.70270 24.99055 24.60938 26.31425 27.44450 26.81450 28.68970 24.95339 27.57531 25.56488 27.65151 26.24044 29.49366 33.16268 32.68719 37.06357 35.87416 38.94252 37.89734 37.30458 42.13648 41.77479 38.89803 37.75641 34.32394 38.04380 42.28289 50.50327 56.10648 59.69782 60.96969 53.67074 53.86757 47.29995 44.18526 42.58747 49.40945 58.09916 69.72292 71.61426 69.94932 62.69443 59.57253 57.51717 65.12438 72.03998 78.00674 79.21020 73.72319 67.82052 64.10163 63.49122 61.91691 67.59114 73.31519 74.13457 66.22716 57.97075 56.69452 51.18123 47.97619 51.12613 56.10482 60.11413 63.07932 60.33059 52.00441 45.47949 37.95901 32.32034 31.40073 29.52773 31.33514 34.07732 37.49004 41.37038 45.90011 45.52445 42.28132 38.71217 32.14775 31.63383 27.60835 26.90511 27.69378 28.04421 26.42046 27.45823 26.40174 25.74095 25.42513 26.69044 23.91844 24.56062 25.02852 24.87674 24.96573 24.43910 26.36218 24.59844 25.10276 23.99776 26.41971 26.22906 25.74717 25.79751 26.46226 26.94617
25.66177 25.85853 25.78107 23.02894 26.72091 24.94952 26.47469 24.58061 25.28564 24.46886 26.68481 25.11397 22.40233 26.67967 24.32878 26.19165 27.44846 26.34618 25.93997 27.46467 27.16461 25.74059 27.58137 26.49307 25.64333 28.36953 28.37809 27.64845 31.60184 32.55718 36.88971 38.34910 40.55463 41.46494 38.56648 44.42715 43.18949 42.25800 40.30813 38.62526 37.63250 43.04233 48.71798 53.92525 62.71828 64.90204 60.91219 59.19358 54.77486 46.88415 44.27217 49.00610 59.27273 65.12212 75.21861 76.82384 69.50860 69.30573 61.07772 69.77607 73.56385 80.27733 83.31573 80.18397 73.67438 75.65323 72.81838 74.58229 75.95167 75.40874 77.83648 73.12642 64.57673 60.62554 55.09169 54.47546 57.65682 61.80826 64.26686 64.34806 52.44806 48.62734 41.47423 37.64993 33.29177 32.86934 32.44087 33.72761 36.76886 38.99541 42.93996 46.11350 44.78954 41.59472 35.17183 31.73775 31.27618 29.32746 28.67529 28.89152 29.66965 27.85853 27.82619 26.79382 27.38908 27.46675 26.03058 26.25817 27.83538 26.59820 25.96942 25.43769 25.11269 26.57234 26.67260 24.17209 25.63668 25.87457 26.51796 26.73503 24.42595 25.59206 25.19286
26.04695 26.06038 25.52875 25.78729 26.38952 26.13480 25.99026 26.56228 25.26256 24.87205 26.47043 27.48445 26.21560 26.29910 28.01935 25.87372 24.68726 25.98564 25.26103 25.93864 27.62753 27.67523 27.42033 27.31056 26.03808 26.89696 25.23737 26.67352 28.89381 30.34441 31.30273 37.06819 38.43139 42.31411 41.22404 45.15201 48.13488 45.46081 45.93303 43.22227 41.20735 37.90630 48.18780 57.08849 60.84373 67.02404 66.94262 66.44009 56.09910 56.03458 48.63901 50.32106 57.05081 64.72413 75.30419 80.55538 74.94268 72.10542 72.56603 77.28653 80.77046 87.86693 87.42329 83.70391 81.92572 85.98379 85.18153 81.44851 75.10875 83.93446 81.70555 74.92096 66.67784 64.31182 57.90299 57.25002 63.95795 68.26700 69.52661 65.49200 57.46643 43.11997 38.17125 39.65162 37.40227 33.52363 36.96964 41.49775 43.72454 46.32230 48.39744 51.40538 46.95261 42.39950 37.15484 30.43207 31.57552 31.57943 29.28339 31.39598 29.96029 27.17150 27.23839 26.99887 25.20191 26.60784 25.75207 27.14663 24.60665 27.39092 26.94341 26.20734 23.74435 22.85508 24.95013 25.84958 26.17161 25.70636 25.80976 24.28293 23.93515 26.71655 26.32731
23.93454 25.68291 23.88698 25.48053 26.13588 23.19818 25.84974 26.27196 25.62392 23.96520 23.21767 26.63397 25.58654 25.86621 25.58350 25.41980 27.20413 25.59953 26.11802 25.32759 26.07873 26.98100 27.20782 27.45854 28.26109 27.79848 28.02221 26.78434 28.47993 28.48417 31.27618 32.81922 37.40976 40.54422 42.58660 47.45296 48.81575 52.70512 51.03531 48.91803 46.52756 41.85615 48.44953 54.43388 61.14223 71.86010 75.60836 72.12454 65.75536 63.68050 55.38980 55.15103 61.03259 67.16447 76.06804 84.48223 84.17874 77.65315 84.38623 85.19695 89.32118 92.83455 94.81568 90.25936 88.33132 87.96363 89.52037 86.32571 86.71331 91.45964 82.85575 79.95992 76.65901 73.34649 71.27818 65.63636 70.45626 70.33952 72.30808 66.34170 56.03940 49.61097 44.40826 43.95193 37.06664 38.07952 40.46313 44.57704 50.18169 53.94786 52.66258 49.55724 43.67845 39.42477 36.02570 33.87649 35.83232 36.40808 31.37883 33.70436 28.80276 28.19123 28.75711 27.27593 28.44695 26.87039 25.38246 27.43706 26.23877 26.02574 23.11494 27.48054 24.69784 23.80305 27.01482 25.49278 26.23943 24.29996 25.61320 25.51462 23.45492 27.64823 25.00695
25.54798 24.74410 25.48684 25.95499 24.02110 24.44175 24.84106 27.04812 27.62626 25.28187 25.73826 24.40905 22.94899 24.01450 23.94210 26.92229 27.24371 25.79055 25.64927 27.18273 25.08088 24.85778 28.94210 27.58222 28.80147 27.61866 29.43883 28.53035 28.62429 28.56146 30.35955 30.67169 31.82066 36.80560 44.01117 47.11337 50.81019 56.90782 55.75706 56.03376 50.54801 48.56549 48.17900 54.08913 63.37423 66.71206 74.45096 79.47639 74.01759 72.70579 59.89218 63.33203 68.05693 73.20186 77.60845 87.55267 93.34573 88.64817 91.15949 96.01120 98.39476 96.74268 96.04394 98.03258 96.88801 99.29346 99.47253 94.82756 96.85433 94.82582 86.75965 86.66501 84.51038 77.49629 76.86880 72.47450 78.26152 79.36223 73.95977 63.78394 53.79431 49.43530 48.13168 45.34465 40.35082 44.03213 47.27777 51.67108 54.34785 57.25527 51.96626 49.89333 42.53163 41.74680 40.16914 37.01993 35.32265 38.50375 35.09880 31.80283 32.40944 31.24834 29.17338 27.81096 30.95709 26.17455 27.00675 25.00038 26.57915 26.45306 25.60732 25.88625 25.93566 25.47210 25.01108 26.80917 27.67711 25.47456 26.06345 25.77113 27.71422 24.48206 25.48270
23.95141 23.76981 24.44074 26.82020 28.05556 25.23757 24.77714 26.39440 24.16471 26.20116 24.15904 25.83405 25.15151 24.28627 24.55816 25.20997 26.97101 28.34546 27.37295 27.49012 26.10429 27.41080 27.04062 28.47883 27.72235 29.86180 31.01088 30.89673 30.98226 33.02826 33.50150 31.68990 31.13565 35.29387 39.68369 47.16172 51.48518 58.32664 61.98664 63.04010 58.61315 54.91509 53.94873 53.18844 59.62782 66.38150 74.47863 81.58328 80.37276 79.42799 76.24646 70.17907 74.53758 81.05113 85.80708 88.82037 95.18990 93.20169 95.68591 99.30592 103.91683 104.14516 104.32914 105.99684 103.06058 102.18681 103.60004 103.35593 100.93739 99.48130 99.41039 92.26852 93.23210 87.88200 87.94200 84.12601 81.90365 81.10898 75.49692 63.69887 58.33087 55.63301 56.09231 44.94189 41.61201 47.78602 51.51013 59.84313 60.40950 60.85348 56.13105 50.93807 48.23471 47.22038 42.78613 38.72131 39.32679 40.98753 36.54225 33.14784 31.30090 30.07021 29.62007 29.92290 28.68862 27.36408 26.17780 27.30331 25.92576 28.55803 25.37536 25.88988 25.79127 25.83962 28.34343 29.04481 24.75652 25.27779 26.18632 24.69406 24.08695 26.43192 25.14781
26.04465 27.25825 26.56677 25.11192 25.12773 25.00976 24.83200 25.17770 26.34358 24.31560 23.13179 26.84462 24.87796 24.77389 26.96949 27.10425 23.97524 26.91398 25.94318 27.50287 28.64911 27.08926 28.74214 28.71532 27.80609 29.98901 31.40237 32.93616 33.45673 36.18827 37.07561 35.95465 33.49499 34.91760 35.22985 42.38893 48.12862 56.47449 61.78406 66.04227 67.27527 64.20158 65.15631 58.16952 57.91516 64.98569 72.78042 82.87334 85.95425 86.95345 82.65501 79.74292 84.53900 84.82305 93.28840 99.52635 101.01738 100.81377 104.55660 103.67959 107.19677 107.68058 109.29089 109.62596 109.17890 107.15842 110.05166 107.74930 104.79086 105.44756 101.22819 98.03143 97.53651 96.38110 97.21907 87.72479 88.33207 86.07923 78.77111 69.69598 65.27104 62.52300 57.84192 46.99492 48.07653 55.87457 64.61567 66.62608 66.53731 59.65395 56.86507 54.80774 52.50948 49.63829 50.82307 44.47226 43.16546 40.94543 37.94946 34.49514 31.07320 28.39789 27.17417 27.12349 26.26050 25.85716 25.10678 27.26218 24.58089 26.21942 26.37338 27.88008 25.73945 28.33710 23.98324 25.80936 25.59696 24.03666 25.89327 24.82584 26.11746 26.03290 24.97703
26.27391 23.31696 25.26991 25.44689 24.72413 24.33146 24.90818 26.64366 26.47228 27.33579 26.13753 25.67189 24.87732 26.22112 27.61072 27.20482 25.18694 26.72676 29.45805 28.14606 30.60010 29.40645 29.47410 29.97759 28.97300 29.23628 32.26716 35.15337 37.22312 36.95383 39.99380 41.21793 38.73571 38.64034 35.83727 38.11243 48.28264 55.08900 61.23643 69.29767 71.03705 77.16804 72.79233 67.06237 62.24637 64.93252 71.23106 84.00297 89.89899 89.62151 87.55232 86.32067 91.65129 94.22071 98.63053 103.04037 104.64567 107.78113 107.19936 109.21903 108.68089 110.28389 108.84570 110.25910 110.10149 109.68347 109.35161 109.56954 108.85729 109.14095 106.59770 105.24363 105.95328 101.64780 103.07724 100.73392 93.19928 87.82543 81.71636 76.63833 72.88709 62.62839 53.79465 53.31053 54.16787 64.58203 71.11990 72.56174 68.58292 63.98520 58.99676 56.03724 55.54257 52.95855 48.73416 46.58903 41.02268 37.89518 34.53616 33.30449 29.12567 28.68597 27.26137 27.15017 25.79383 25.31461 25.07264 24.01323 24.90060 25.54967 25.39281 25.81956 27.08332 24.58028 22.98192 26.79657 25.43166 26.24574 25.95643 25.27968 25.03042 24.86418 24.35299
23.70334 25.82214 25.82589 25.78213 25.55039 26.88501 24.47695 25.21167 26.76036 24.62744 27.31133 25.19636 23.38827 24.37089 25.78740 26.49628 27.83538 25.55708 29.81487 29.07102 30.00368 32.83781 30.96702 33.10891 32.65038 33.33022 30.20743 32.21964 35.28520 40.00246 43.90141 44.59118 42.81489 43.93760 41.99200 40.00308 43.35061 50.53525 59.12985 67.61422 75.40882 76.39090 76.21428 72.69483 72.95022 75.13129 74.36827 82.50413 91.50344 93.28488 93.90830 98.05362 99.74134 101.10928 106.01170 106.44426 109.03209 109.85964 106.60450 108.43438 106.15727 108.42708 108.95361 108.50831 107.29914 108.19960 107.04150 109.27959 108.13497 111.99436 107.40756 109.46736 105.76628 110.57305 107.38082 103.25574 98.95370 92.37437 88.76807 81.30194 77.98591 64.54547 61.02920 61.14742 62.79826 69.66444 78.14393 78.51006 71.86248 65.13388 59.34691 57.52609 54.84722 49.74599 45.91242 44.38456 39.23353 37.51156 33.62928 31.81380 26.02931 27.12315 29.74254 27.16802 27.71696 26.39653 25.75435 24.67074 27.29368 25.01610 24.92227 27.89458 22.29988 25.31417 24.55761 25.83933 28.38286 26.46227 24.55428 26.00981 24.32756 25.27165 25.04064
25.27550 24.48704 24.51733 28.00741 25.46255 26.35634 25.23917 24.57154 26.54829 24.76864 24.08192 27.34336 24.71918 24.36901 27.66154 26.47389 28.17144 26.57711 27.89682 29.84045 30.62221 32.01001 36.37211 34.11486 33.66008 32.78152 31.45695 33.04573 35.66862 37.99412 41.01611 46.49350 47.24254 49.60052 48.32210 43.51365 43.50387 51.05421 59.46367 62.25678 72.22039 81.55375 81.76295 84.36522 78.60831 80.00219 81.37997 84.15714 92.66990 100.40064 102.71703 103.36692 104.58936 106.28944 107.59534 108.51239 105.74785 106.81070 106.49645 109.21272 105.68099 105.24346 104.94953 106.71642 105.92562 105.83224 106.00597 107.00764 106.37654 107.83314 107.96593 109.35605 111.08842 110.07903 108.76615 107.56323 105.68244 98.91837 93.47142 88.04031 75.46407 67.35968 72.91153 73.08695 75.10600 77.86266 78.81957 77.79634 69.38804 66.91456 58.18433 56.26393 48.33071 44.61405 40.31361 38.17712 35.92761 35.13066 28.42961 26.87714 28.75740 28.10134 29.15893 30.75213 27.38291 27.08362 27.62322 28.09363 26.11239 26.54651 24.68566 27.74432 26.59856 26.04266 25.88309 26.09090 27.09621 24.41476 25.40255 25.62422 24.29291 25.30181 25.71641
24.36665 24.44039 26.61785 24.87905 24.79641 26.08033 27.49346 28.05352 26.45599 25.95061 24.82869 26.38282 25.21040 25.87283 25.74880 27.71108 27.31368 26.32675 29.49996 30.07606 32.05246 35.08157 34.86714 37.33279 38.55329 38.50120 38.97328 37.02920 39.21146 37.10511 41.23068 45.55103 52.19755 54.72076 54.14782 49.21452 50.83718 48.34617 51.79123 59.82604 69.78256 79.18178 84.51636 86.79969 90.57983 85.89953 89.50495 95.42944 97.63423 102.52546 103.94962 108.60578 107.48557 107.54233 106.59644 107.41325 105.55702 105.81620 103.95249 105.39400 105.40156 105.14447 105.63265 104.20137 107.40100 103.53315 103.19274 105.25055 104.67951 107.81174 106.60446 106.17733 108.24836 108.63446 108.31235 106.67614 107.92841 104.04681 98.79024 90.00620 82.17960 77.69171 81.05680 83.96817 82.47559 84.69429 82.55751 75.62337 69.29894 65.59964 57.37556 52.11634 45.34411 41.51387 37.47074 34.97822 35.34053 32.58255 27.21785 28.60954 30.05110 31.15863 29.74915 31.24107 28.95885 26.68026 26.37248 27.43016 27.17532 27.00491 27.98070 26.05678 25.47807 25.15175 27.39973 27.16537 23.78374 26.57188 26.03281 25.29474 24.26432 25.76533 24.86769
26.23054 27.05403 23.67090 24.95978 25.10225 25.27827 25.39277 26.97752 26.30677 26.40025 26.84640 25.33985 24.79707 25.40838 26.95541 26.56822 27.39678 28.68420 28.17896 30.93717 31.20829 33.51369 37.85587 41.12589 43.59642 42.14655 44.84799 43.54605 46.11886 43.83403 45.77139 43.39253 51.41807 57.28111 60.59570 60.82135 56.37717 56.37476 56.80783 55.16914 64.15914 79.51601 87.07405 91.62345 97.63435 97.60791 98.35614 102.99891 102.55973 106.49246 109.06009 107.04648 106.38480 106.38084 105.65706 104.70314 104.92420 102.57148 103.55720 102.59081 102.89644 103.29383 103.79203 102.27845 102.96289 104.07747 103.80829 103.87770 102.91120 105.27646 104.80439 105.57191 106.58756 105.84939 107.11737 105.37270 106.63980 105.04163 99.85841 94.98268 90.92811 89.60440 91.48897 95.76026 90.44797 89.59252 82.89987 75.45812 69.02137 61.54941 57.32115 52.48218 47.53327 40.49731 37.45190 31.46694 31.92123 30.90924 28.93713 30.74645 32.17512 33.50737 33.18472 31.80093 30.02753 29.07372 25.94206 26.87422 28.40754 27.11115 26.76120 25.26878 26.01853 25.91007 25.95618 24.64502 24.74492 26.34084 24.09660 25.90468 26.72230 26.11045 26.67635
23.63621 26.73889 25.31791 24.42453 27.71066 25.14076 23.48392 25.47402 25.65562 25.50862 24.22469 26.45480 26.46490 25.06245 24.92547 27.33213 26.43826 27.47878 29.36515 30.47043 32.47236 34.64261 36.87428 40.58904 41.85763 45.46916 48.42466 50.41929 50.92358 48.40431 51.17326 52.50691 52.33206 60.38085 63.76010 66.09336 64.16023 61.19944 63.10561 61.05618 64.14961 75.45476 86.96229 92.93212 99.19265 100.05062 104.42076 106.63388 105.56386 106.88019 107.27321 107.39983 108.35171 104.15886 105.51501 103.31651 102.91528 103.06485 103.63049 101.69450 100.94812 102.29398 102.26739 102.72841 104.29253 101.13393 99.73743 101.19299 103.31772 103.62823 103.81745 104.35922 104.35764 104.26528 106.95163 107.57874 107.14848 106.52106 106.28801 102.51653 99.12160 96.25749 99.09465 99.45703 95.65755 89.10597 85.12148 75.97127 68.32065 62.01343 53.87069 54.00559 48.61708 42.13130 36.05383 34.59921 31.54939 35.39158 35.70895 33.44359 34.96435 35.16210 34.04837 34.28794 29.91376 31.63044 28.93215 30.48137 28.45808 28.83045 28.02743 27.92352 25.79225 27.38913 25.58735 27.62387 24.96567 26.75309 26.91113 24.45638 26.94457 26.83788 25.30499
24.84480 24.55519 24.81142 25.51806 22.50711 26.06805 28.60489 23.73529 24.42908 24.37637 26.05550 26.08783 25.98488 24.52322 24.89609 24.71860 25.98782 26.16359 27.23792 28.18155 30.67497 32.68854 34.46775 38.82483 37.41293 44.15353 46.83724 50.85399 54.96546 55.94585 58.06682 57.42062 58.66921 63.47830 67.93525 70.51916 75.11342 71.60563 72.44200 71.02087 69.03229 73.68331 84.33647 94.64449 100.51953 107.80561 107.57888 110.72365 109.59760 107.34990 105.65901 105.86604 104.02203 103.94304 104.01220 103.52096 101.92116 102.13623 101.02933 101.86759 100.75507 99.97495 100.01118 100.71017 100.96410 100.51655 100.26053 100.33959 101.03443 101.95504 101.56032 102.24475 104.40885 102.94964 105.24102 105.64553 106.01743 108.24442 107.65513 104.46259 104.24105 104.00553 104.55671 100.60524 97.11288 90.60535 83.51084 77.12173 65.79833 58.83024 50.55618 45.43888 44.23269 40.92801 35.08554 41.48020 37.82433 42.12552 37.96496 38.47875 39.50560 37.56137 32.32500 34.68748 34.55172 34.47118 32.69463 31.31565 30.33865 29.15973 28.92687 26.94740 26.63968 26.21896 25.47688 27.54235 27.10691 23.89437 25.13188 25.87332 24.96952 24.14573 25.18986
25.40038 27.12320 27.06260 24.54053 25.74559 26.27479 26.17078 26.65570 24.06316 26.49998 27.42411 23.96100 25.67823 27.99074 25.86056 25.21897 25.42379 25.04278 28.95542 29.62235 29.19137 29.95731 33.40398 34.24397 36.72413 38.90281 43.91401 51.37685 50.78898 54.58701 58.20633 60.31462 64.01544 65.95183 70.68201 72.08681 78.68982 80.86097 81.69996 79.04850 77.89075 78.39128 82.47494 94.24895 100.70757 105.81473 107.47509 107.43075 105.42897 106.38598 105.66925 102.94253 104.34374 104.68347 102.88371 103.02530 100.13407 101.11109 100.58253 102.41673 99.92066 100.45109 97.63248 98.16538 100.21306 99.50309 100.78398 99.60887 98.03441 99.00094 99.76994 99.61099 101.10516 99.94536 105.01004 103.54711 104.50496 105.60449 106.23543 107.66507 107.66975 105.16541 104.11934 102.76612 95.51017 86.02368 78.53088 70.98947 63.82544 54.59177 50.71175 41.69303 39.20022 40.38931 40.42797 44.76236 43.24956 47.30346 47.34581 43.97983 40.97129 38.63601 37.82324 36.80314 38.08003 36.33872 34.66595 32.76836 28.86947 28.43296 26.36378 25.40306 25.65927 27.69828 26.24969 26.55054 25.04795 24.83919 25.65542 26.37087 25.70569 26.32769 25.97562
25.18953 25.12997 27.16068 24.77721 25.66278 24.39981 26.43651 26.28952 26.33490 25.04972 25.27157 25.90794 26.00948 24.26354 25.19590 25.86296 25.73663 25.07136 25.89077 27.56343 26.14611 30.63300 30.04302 33.21502 34.46626 35.02320 41.77522 42.54949 48.88626 51.15415 55.62396 59.52726 63.39165 69.23490 71.32440 78.76499 82.09622 88.03337 86.90870 86.33798 89.09307 85.85761 92.91741 94.45154 99.19467 106.73493 109.58142 108.16275 105.88332 106.14112 104.56126 102.83252 100.42123 101.54261 99.00545 99.52748 98.86497 101.00214 99.22093 99.66419 99.82603 97.50960 97.40324 99.11733 99.56407 97.72417 99.92812 101.04713 99.05168 99.49190 99.48051 100.34041 99.06437 101.09257 102.85839 104.13107 103.96985 105.51364 106.72110 108.96642 108.21552 108.49125 106.41469 103.68650 90.07755 82.61812 77.32663 68.16145 59.54670 56.11785 53.90673 48.88394 45.65513 45.17731 49.62746 53.40928 54.91258 53.63014 52.51940 48.60973 44.44395 42.53601 43.39361 40.50382 41.52329 36.16447 35.29159 32.31864 28.35452 27.42808 26.86521 27.10369 24.50381 24.66310 25.79126 26.93440 25.99998 24.11468 25.13213 25.30884 25.50905 25.73855 25.69261
26.48330 24.11914 26.42794 26.12514 24.68513 26.54948 27.58850 26.77454 23.30006 25.90503 24.42049 27.66302 25.84971 25.77055 25.43710 25.10275 27.93765 26.38455 26.91723 28.22458 27.16157 26.29382 27.68663 29.09321 29.48461 30.69000 36.80045 38.61240 40.56273 44.82440 49.41452 53.93107 62.89375 64.90260 71.44431 76.95999 83.79598 86.20562 94.09484 94.03773 94.41892 94.89151 101.37848 102.62523 106.36906 107.60046 105.68378 106.01594 105.61303 104.73879 102.04392 101.33809 100.33592 100.23136 101.04799 99.44057 99.32013 98.41168 97.97811 96.87785 97.04638 98.41368 95.72114 95.33178 98.96505 97.19672 98.30637 99.10038 100.09678 99.10730 98.76585 98.55597 100.54492 99.25064 99.29027 102.10398 102.49594 103.55727 106.29168 106.23756 106.21921 109.58472 107.65058 101.28412 97.02239 81.89127 72.23269 65.79987 62.96745 63.85061 62.05353 55.77747 49.46661 53.26657 55.01923 59.39517 60.08998 61.62247 58.81682 51.10913 47.84701 46.14912 45.43681 44.85948 41.41843 37.79804 35.15538 31.05766 29.52971 27.07270 26.24733 26.72998 24.15212 26.94188 25.43877 27.69362 26.91368 27.36273 23.99080 26.37901 25.05543 24.94588 26.29775
25.27238 27.34853 26.64159 25.54563 24.20118 24.70926 25.83142 26.02235 26.41131 27.90559 26.58180 25.10130 26.20970 27.00560 26.72195 26.52688 27.02415 27.54995 26.44622 27.61230 27.60036 28.67148 27.60882 28.70771 29.62995 29.95670 34.03878 38.11629 36.95589 41.42164 41.23696 47.86166 51.86946 57.44023 60.60597 69.94935 74.21946 84.42093 89.44865 95.43289 101.45911 101.47328 105.13864 108.36778 107.87608 105.66541 107.38113 105.55438 103.85616 102.91327 97.74172 99.90973 97.84950 99.55886 100.81912 99.00991 98.79661 99.62883 96.82284 99.05174 98.39821 95.14081 96.17058 97.29493 98.83655 98.08445 96.13296 99.21052 97.00830 98.50520 97.55362 96.08574 98.11017 96.90220 101.53621 98.48662 100.04075 102.77417 103.82669 104.14143 106.59005 107.10535 106.62870 102.70780 97.86254 84.64803 76.84648 74.34591 72.91691 72.70506 65.55088 60.95146 56.25208 60.64120 64.74461 66.10903 67.03269 63.62062 61.31473 56.75088 51.65083 49.67835 47.62157 42.98960 40.71210 34.14323 34.00809 30.40794 28.09603 26.60690 26.23177 26.72982 26.67205 26.06746 25.26316 26.46711 27.66741 25.76667 26.41240 26.46935 27.10753 25.22602 24.02707
24.21042 24.76118 25.70484 23.48319 24.53418 25.88829 24.79423 25.79351 24.65404 24.49624 26.48033 25.80502 25.60255 25.89436 27.35511 25.65536 30.40758 28.58567 29.72964 27.83161 28.72775 30.96193 31.77535 28.40601 29.34145 29.96708 31.26677 31.93315 33.55124 37.18131 41.76908 40.07609 45.58585 51.68743 53.55984 58.60233 70.34522 72.58600 88.46112 94.21316 102.03699 108.04507 107.76280 107.54972 108.37300 106.18340 105.48318 103.45596 102.17943 102.23832 101.08377 97.99136 98.72742 98.62588 99.34660 99.13543 97.94807 96.75416 95.51147 96.60585 97.54555 97.16137 95.91383 95.99571 96.48621 98.15870 97.72849 97.28511 98.15652 96.79992 96.47778 98.76723 98.25056 98.45181 99.29976 98.64440 98.25752 101.65413 104.07698 104.35267 106.11393 106.54294 105.31804 106.21561 100.18246 91.73754 85.77729 83.38757 84.11148 81.77268 71.58888 66.88025 63.57158 69.52999 70.20885 69.96949 68.83235 65.74319 63.77836 58.71496 54.46653 49.66230 45.52098 38.03058 36.84895 34.75230 30.23704 29.07554 27.23839 27.47468 27.05528 28.05527 27.94878 26.15269 26.28973 26.61977 27.95268 26.19658 25.87226 24.94945 24.66707 23.46536 24.91777
23.57071 25.69182 25.20235 23.68638 26.23338 26.42056 26.89731 24.68485 25.04445 27.60122 24.82697 27.84841 27.06850 26.84226 27.43815 28.96001 32.10589 31.39632 32.06672 34.23357 33.82668 32.35543 33.67548 31.15885 30.42950 33.57018 32.47668 29.52408 32.32476 34.91843 36.82497 39.27615 38.43175 41.74815 44.81530 50.89756 60.47987 64.83999 74.57917 87.71913 99.12186 102.33260 105.46543 109.98909 104.80657 104.51601 102.92629 102.13022 102.05850 99.43193 100.17641 99.83416 98.54663 97.09618 98.80502 98.01058 96.89290 97.79185 97.95479 96.65312 97.40280 96.36298 95.86485 95.72767 95.61255 98.66497 98.49980 99.30790 97.24527 97.16901 97.40947 96.89069 96.07049 99.63900 96.38808 97.12302 100.17643 97.74176 100.70277 101.96866 104.72852 106.03063 107.11214 108.08612 104.69400 99.67952 91.90668 93.99475 91.22657 79.55321 78.88595 72.61897 77.72782 75.59925 71.43537 70.67849 64.81571 63.97128 61.45192 53.77326 51.06767 47.39605 39.38741 37.56186 32.47342 32.00378 30.93473 27.08974 26.83019 25.04939 27.00630 28.33747 29.17500 28.21861 27.41612 26.05635 25.79017 27.51285 25.90392 24.38013 25.27163 24.24278 25.32398
24.79486 25.18925 25.51165 24.73318 26.02533 26.02516 26.41067 26.44572 26.46580 25.74219 25.92639 27.05269 30.13822 28.65505 28.86922 30.57839 31.69875 30.81272 34.38382 35.10218 34.97330 37.93329 36.00199 39.33122 35.85896 37.34880 36.74428 35.88573 34.56682 34.46749 39.01150 42.36771 44.30459 47.97788 49.98940 54.54963 54.14036 67.18164 74.24616 87.63866 96.45537 105.66498 105.00731 109.49956 105.07666 105.42781 103.25356 102.36443 100.46193 101.00377 98.15535 96.96403 99.65035 98.22825 96.61515 97.83911 97.41415 96.50814 98.24517 97.53775 98.09287 98.75866 98.85526 96.87683 94.59106 96.52063 97.18921 99.88282 97.01409 97.52885 97.41480 98.85624 96.37359 98.90712 98.61373 98.30046 99.47502 100.27716 101.84867 101.20911 105.09306 106.33752 106.79528 108.50290 107.05412 104.15481 103.45787 97.98180 98.30559 92.20230 82.98171 80.17448 80.59048 75.47841 69.42681 62.34634 61.66575 53.97275 54.14191 50.87196 47.31464 43.68187 39.78662 35.13380 30.57126 29.40324 28.89919 28.43575 27.64647 28.33422 27.78085 30.18427 31.09437 27.78801 28.72674 27.45917 24.56670 26.51903 24.76254 27.00995 24.06720 24.31370 25.53817
25.80733 25.79822 25.69488 25.90160 25.58951 26.02235 25.33807 26.13357 25.19638 26.13521 26.57628 27.05493 28.40547 30.94070 29.66990 28.85454 32.07788 32.92952 35.14958 34.89530 39.19461 40.63587 38.22750 42.17397 39.45944 41.37697 44.29400 39.42698 41.62847 39.64396 40.94538 44.22599 49.15160 54.89463 54.31405 64.86774 64.94040 68.00316 75.35194 86.97218 98.21137 104.81079 106.91651 108.55279 105.34955 104.49523 101.69714 101.58782 98.92217 97.44094 98.56971 97.73003 96.30253 97.62603 96.74198 96.97511 96.77388 98.26827 95.80797 98.01057 95.85866 95.49903 97.22436 98.80523 97.27510 97.90402 97.11098 96.46981 98.24764 98.27691 99.39226 97.00520 96.87163 98.02785 97.99193 98.96747 97.42508 99.57161 98.95230 100.25779 102.26542 103.66131 106.40772 105.40301 109.06962 107.78546 105.38180 106.12299 101.75816 97.49288 86.87551 83.88611 78.41189 73.63130 66.36336 58.67999 54.36031 49.12045 45.59030 41.72486 43.08142 37.92219 34.66977 29.90889 29.38629 29.18208 29.55601 31.90281 29.59065 30.42358 32.89541 31.70242 30.22514 27.95479 28.79294 25.17858 25.63836 24.84733 24.92149 26.86561 23.70848 24.82271 24.47234
23.39366 25.62804 26.09280 24.34139 26.21274 24.93459 24.54865 25.80960 27.85776 24.48644 25.55115 26.72570 26.65718 25.82828 28.07264 30.13861 29.99507 31.15126 31.34306 34.54059 37.91407 39.32907 41.03165 43.54320 43.45188 49.26213 48.14714 46.25097 45.33825 43.28156 44.85057 48.21850 57.25497 60.03729 66.44928 68.33207 72.52080 77.96236 83.36257 90.08955 98.94420 104.65520 105.46788 107.02269 104.66017 101.31918 102.23678 102.07735 100.60923 98.97101 97.49612 96.63823 97.71401 98.86072 96.88973 98.21503 96.11560 96.90087 97.26152 96.79756 96.35913 94.87267 97.98394 98.00632 99.18523 96.69976 96.64325 97.40778 97.72915 97.64352 98.16690 96.45595 97.10851 95.93094 95.76427 98.19543 98.83687 97.92515 98.84697 102.39140 102.13719 102.24287 103.65198 106.46963 107.77887 108.30085 108.83807 104.22679 100.14425 94.39728 84.76817 84.09240 71.49223 64.65717 57.34449 53.29418 47.69005 44.96413 41.71402 38.45614 36.71655 37.42235 33.04783 32.24309 31.62979 30.66860 29.98725 33.06635 30.23617 32.37348 29.82700 30.71782 32.26447 28.70396 27.65407 27.80969 26.89973 26.17504 27.00533 26.88725 27.76699 23.85385 25.94505
24.16825 23.18416 22.80234 28.10071 24.70935 23.37547 26.63337 26.37996 26.24737 24.11688 24.54201 25.00409 25.06565 27.28288 26.29843 29.66964 28.53843 28.79981 30.11029 32.55532 36.00556 36.97095 40.09675 42.11280 46.58008 48.33599 54.63681 51.34313 54.94336 53.54912 51.76343 52.85023 55.21724 66.85649 74.11616 76.87114 81.91111 81.94546 88.87826 100.08808 104.44727 106.39305 106.66463 105.10627 102.90526 101.87550 100.26156 99.03876 98.26936 98.98189 98.87244 98.55674 98.80677 98.13871 97.47254 97.98830 96.98702 97.04935 94.89539 99.30972 96.68153 95.78664 94.71908 96.48510 98.50407 96.77865 96.64255 95.55410 97.73828 97.01325 97.72260 95.38609 97.82220 97.85240 96.30798 97.38071 96.85689 98.59721 100.36529 98.34341 102.04830 103.08942 104.48261 104.37379 106.85734 110.81394 107.93913 103.57072 96.77445 92.99764 83.96684 76.88347 68.54182 63.14791 60.17083 57.72499 53.66971 48.91874 45.25024 41.70594 35.19248 35.45496 33.07775 32.30705 33.37587 32.68903 35.29766 33.06044 33.46220 31.02860 31.60324 28.75331 28.86942 29.27420 28.25955 29.72907 25.71116 26.66320 24.85189 25.94101 25.81891 25.29980 25.56018
27.01111 24.92620 25.01321 24.11477 25.72118 26.10972 25.46928 27.09389 25.77964 26.15638 25.88845 25.51044 27.36252 24.80183 27.95292 26.47733 27.83839 29.65664 30.45013 30.48515 31.66471 33.74814 38.33039 41.75623 46.60533 52.92085 55.04011 59.20868 60.69876 58.95035 57.71006 60.23196 60.03107 70.80032 79.44380 85.50719 88.56340 91.29841 97.11964 103.50577 107.34147 106.11897 105.84624 105.32201 101.97770 103.45749 97.62924 99.29398 100.32380 99.07432 100.32435 97.46646 97.75854 98.33869 97.84956 96.07963 96.73386 97.57068 96.43569 97.32029 96.68392 96.76624 98.15193 96.29465 96.30036 99.18722 97.28360 96.58823 97.46228 95.73903 97.49169 96.21343 96.36916 97.69464 98.55846 98.29158 98.16974 97.79084 97.94267 100.80964 98.61505 101.81654 101.46848 105.84679 105.75703 108.41748 105.48838 103.56998 99.99953 93.34464 85.95327 77.26346 69.46330 69.46816 66.75743 65.74816 58.95396 55.91344 47.92966 41.35569 39.06071 36.53455 38.34773 40.66200 37.71693 35.92900 35.00947 34.87833 30.48755 30.92090 29.40372 29.05833 28.71300 26.89985 27.37023 26.37194 25.41664 25.42613 26.49651 22.33374 26.77185 24.77428 25.85211
24.41407 24.57628 25.09675 26.39653 23.54957 25.50490 26.11434 24.40872 25.72057 23.55935 24.72451 25.95675 25.93582 27.68961 27.29559 24.78179 30.23646 26.49504 31.25468 32.51671 33.21392 36.42029 39.08586 44.24483 49.61294 55.25328 58.43947 61.95637 67.05812 66.19018 65.78847 68.01479 72.40410 72.05972 78.80305 88.17994 93.69726 99.14850 101.88332 106.30049 106.59576 108.70368 105.44689 102.03851 101.78476 101.90412 100.60205 98.49672 97.89831 99.02232 98.09511 95.30190 97.66076 96.56198 96.27858 99.52710 96.49925 96.68786 97.86760 97.56467 96.19746 96.98775 97.98474 97.32167 95.92762 97.15660 96.75007 95.20543 96.78741 96.24038 98.24427 95.70171 97.07386 96.35115 96.86261 97.43095 97.31185 96.55496 98.75458 99.10970 101.83557 101.27809 102.20238 103.39089 105.06697 107.62253 109.11345 105.82302 100.86840 93.32213 87.05247 79.55149 81.58944 80.62804 77.11934 69.12979 64.53297 55.55903 49.25874 45.78729 43.42999 47.13645 41.56658 42.05124 40.50055 36.82903 37.23444 34.55935 32.42989 31.95908 26.92493 28.59849 27.04981 26.13457 25.19382 28.20022 27.76757 26.59364 25.26503 25.24503 25.64364 26.11979 23.49852
25.22148 25.43855 26.16254 25.40023 26.81915 26.36481 25.97426 25.83492 26.01716 27.27316 24.02131 25.41326 26.67689 26.99222 28.25708 30.09988 28.83166 29.37624 31.62417 37.21434 36.35787 37.25355 43.86595 45.97487 49.48193 55.79648 58.98805 61.48934 64.89713 66.59636 65.67973 72.02426 74.43437 79.58481 83.93486 87.99870 98.64434 100.97879 105.67901 108.46617 108.16295 106.94811 104.41317 102.86940 101.79340 99.95013 97.26525 98.88564 98.21879 98.69120 95.71279 94.97937 97.67083 97.80476 98.34595 98.15666 97.94917 97.80256 97.26189 95.85486 96.38755 95.10104 96.52302 97.68766 95.79762 97.05095 95.09728 96.58348 94.91921 97.84295 96.54774 96.34386 97.25609 96.14138 97.88522 94.56648 98.47745 96.66346 98.00226 98.85856 99.63308 100.79216 101.38464 102.27921 103.84839 107.92542 107.71650 109.78580 102.92529 98.10051 94.51709 88.94785 87.00981 84.54559 77.82275 71.11864 61.19891 55.72437 52.71225 49.58786 50.62563 47.03410 45.48848 40.69795 39.21684 36.79366 33.08231 33.17023 30.90185 29.23462 28.46610 28.98959 27.51834 27.99565 28.02577 24.88158 25.23656 25.19002 25.47968 25.73260 24.24899 25.46625 24.36805
24.82242 24.19993 26.28146 26.19208 23.93141 25.41959 26.42770 26.24598 23.37911 25.08365 26.76508 24.84946 27.02315 27.68652 27.30418 29.28428 30.49363 32.56337 34.91881 36.99843 39.48913 40.10042 43.85186 50.29457 51.67228 56.10349 55.98150 56.96343 57.26857 59.45839 63.70691 68.49022 71.32956 73.08364 79.03832 88.52388 94.22008 102.25889 107.21419 108.92006 108.00707 104.89257 104.65603 102.40964 101.64869 100.25517 98.73965 98.55806 98.11675 98.05845 98.45253 95.32121 96.47357 95.85585 96.45547 97.62426 98.13344 97.75359 97.02265 95.94493 98.25007 95.96377 96.87815 96.54554 97.22506 97.28455 97.28215 96.85089 95.73862 95.26635 95.39471 97.58013 96.73193 95.77360 96.13437 96.83746 98.79045 98.65177 98.09349 98.75161 98.65512 100.17294 102.92470 101.94378 104.97226 108.02323 107.87178 107.02964 106.81331 103.37994 99.81818 93.68195 89.13125 81.08122 77.65903 70.95403 64.70906 59.17179 56.64553 55.85638 51.62707 49.02012 46.22883 42.69404 37.56934 37.23209 34.16935 32.59768 32.96070 30.63446 26.35174 29.13368 27.12989 25.17594 26.67531 24.41658 27.39247 27.64058 25.45102 26.50470 25.86437 25.89206 24.92556
24.80769 26.34006 24.80274 26.07763 24.76800 24.46998 26.46640 25.57311 26.27070 25.07615 24.75352 26.24824 25.98170 27.35351 30.60173 29.97955 33.07017 34.20583 36.51137 38.00428 42.98539 44.97199 43.79095 46.35296 47.06729 48.43747 47.35841 47.69026 48.13915 52.83842 53.23510 57.17569 60.86444 67.91673 73.63415 84.59805 92.60331 97.61779 103.65706 107.77146 107.82040 105.86861 104.29312 103.59424 101.44636 101.45348 98.66363 96.85493 99.03784 99.32547 97.81126 95.65001 96.21631 96.14415 96.58216 94.43649 97.25935 97.84075 96.36647 97.64369 98.39478 97.61682 97.77317 99.14636 96.11895 98.27970 94.62983 98.33083 95.22990 94.79571 97.11259 95.34744 92.67535 92.96506 97.18107 97.15070 97.29105 97.10759 99.55741 98.96984 98.65207 101.74252 100.85586 103.20097 103.95268 106.94840 107.18148 106.99847 108.14667 105.88416 98.18666 93.30172 86.63161 80.20661 73.93801 66.75238 64.64850 59.79267 56.19981 50.75211 47.86883 44.52001 40.94386 39.43962 38.43983 37.33902 37.16524 33.66810 30.39654 30.32842 30.18258 29.27731 27.16612 27.12952 26.05785 26.43098 26.22977 25.11976 25.87252 25.20006 25.54391 24.16684 25.01814
25.14821 25.26523 25.22659 25.20614 26.44180 25.12398 27.37594 26.23688 25.84491 27.43095 24.22401 26.92483 27.03470 28.60130 28.78208 30.06379 32.47872 35.77170 38.47168 39.96476 40.99198 43.20893 43.56502 44.50670 43.58503 42.79807 41.43520 38.99037 42.07313 43.24456 47.41742 51.83133 57.04019 62.08590 75.10278 81.52825 90.70531 99.93506 106.07760 107.75509 106.24187 105.82043 105.25119 102.08207 101.35265 99.64451 98.37792 96.40090 97.86907 98.51413 97.13582 97.13162 98.11655 97.78481 96.86430 96.71472 96.98983 96.29237 97.34298 98.66868 95.85925 95.02759 95.89836 95.90762 97.38735 96.39606 96.13092 95.65929 94.53654 94.19492 90.69511 94.28420 89.42314 93.89310 95.43326 98.17160 96.82058 96.49463 96.65096 100.24789 97.70014 97.53686 100.55162 102.80134 102.32516 106.53299 106.61536 110.97769 105.33355 103.86197 98.86812 93.87845 84.97296 76.69958 71.49707 64.17401 59.42838 54.46350 52.00180 47.06474 44.18320 39.37441 35.15024 34.73272 31.32224 32.95279 30.93372 32.10631 31.16270 28.27504 27.34135 25.93368 25.72720 27.02857 28.16855 26.95745 26.51055 23.96561 27.54260 25.82289 25.95117 25.90622 25.64878
24.86820 27.08542 24.96747 25.39675 25.92615 27.00839 26.88890 25.21710 26.62327 25.97569 25.65265 26.82821 27.14700 27.28379 31.39271 30.81913 31.62050 32.44037 34.33439 37.95476 39.33980 40.63552 36.95666 38.08100 36.90839 34.25085 37.71031 38.95407 42.62603 46.60389 50.24728 54.83891 60.35963 65.73765 74.83170 80.82026 93.57080 101.79135 107.23072 106.74283 107.54347 106.36207 104.23924 102.18706 100.20677 98.91913 98.97203 99.33245 99.23912 98.66262 98.19918 98.57339 97.35249 96.68383 95.96257 96.16824 95.69571 99.13335 98.15115 96.59087 96.99672 96.65548 95.51029 93.70005 96.80570 94.67307 97.43781 94.44706 91.53054 91.68422 85.53588 86.09724 84.33723 90.55154 92.53594 94.94266 95.50249 98.06561 97.09032 97.37083 98.87800 99.19570 103.07480 102.34933 105.08835 105.59665 106.56279 109.71716 107.14961 102.68497 98.11720 92.42870 88.07285 76.91776 69.76731 66.80682 57.92918 52.36465 47.87797 44.37678 42.23877 36.45867 34.67710 32.48670 31.47593 29.71151 28.89451 28.83793 27.45373 27.50072 29.13395 26.99924 26.86141 24.81186 26.04536 26.41414 25.98055 26.64134 26.46873 25.05474 26.88472 28.13934 24.06454
26.11498 23.37664 25.68862 25.07500 26.18350 26.16288 26.08115 24.97608 27.57807 25.60108 29.04206 26.42803 28.31164 30.09491 31.63180 30.04995 32.01394 31.13192 32.38235 34.24264 32.57117 35.27512 33.33524 32.58347 32.69751 35.83734 38.92732 43.36024 42.15354 46.27671 51.75887 56.61020 63.41853 73.74146 79.23714 84.74719 93.66172 100.61214 105.73114 108.85306 108.54819 108.31528 102.63549 102.61995 101.27394 99.58522 99.47378 97.80068 96.78866 97.14760 97.33873 98.37778 97.76404 96.68434 96.41149 97.74857 96.72562 97.07199 97.45650 97.12528 97.95882 94.57013 94.79816 97.18095 94.95246 95.07751 91.00747 95.40934 93.81817 92.09874 81.27833 77.36826 81.36065 91.72769 94.36097 96.36643 94.70401 96.56435 97.05647 97.07927 97.77893 99.89498 99.19681 102.45040 105.18759 106.68870 105.01080 108.12513 108.28707 104.04956 96.79652 90.46739 81.65718 69.74767 64.16886 64.53052 56.06506 49.94181 48.23797 44.68224 39.38456 34.57178 32.88066 33.00079 29.28349 28.47211 29.43498 27.50695 29.09309 27.41580 27.00306 25.30669 25.74531 25.43222 23.77704 24.61447 24.94598 27.12394 24.99320 26.39019 25.25763 25.09936 25.70687
27.52166 25.45086 24.30701 24.39873 26.46561 25.88071 24.07378 26.44617 26.98790 26.49713 24.47513 26.46940 27.71678 29.04209 26.40769 30.95457 29.46351 29.63394 29.84592 28.79244 30.48352 31.63494 28.45583 32.04390 34.86749 40.49432 43.23120 45.93046 47.34064 52.44940 55.47024 64.37635 67.28429 75.62691 85.98038 88.11349 93.27608 98.08367 106.49472 107.11517 106.88974 107.59864 106.11142 102.12347 100.66802 99.65842 98.54102 98.09528 98.37878 96.04133 98.63204 97.67560 96.73061 97.45224 97.84850 95.96928 97.56833 96.84592 97.12779 97.06286 95.32591 97.60079 96.19188 95.78921 96.31602 96.68418 91.34627 90.85400 89.43769 92.74010 89.70134 82.21846 80.86631 85.84159 91.22078 88.91267 97.58559 95.60277 96.61738 98.32582 101.41387 99.40549 98.69522 101.34686 103.67550 106.98917 108.76489 109.55292 109.09157 101.87385 98.43513 87.39292 78.56808 70.34044 61.51250 54.75403 54.98980 46.67099 41.08204 38.87102 33.40813 33.36199 32.91047 30.13777 30.43768 29.26490 29.46913 27.04443 28.09331 28.65939 26.66050 26.37940 26.06416 26.21619 26.40327 24.05903 26.72292 24.02931 23.94796 25.51333 24.26208 25.27211 23.03906
26.67734 25.49845 25.41225 23.58431 25.36860 25.67607 24.29624 26.16980 26.48064 29.57320 26.82347 26.55554 26.63019 28.40308 27.15006 28.08247 25.85320 25.92696 26.38542 27.74822 27.63034 28.35970 31.21928 30.97095 35.62933 40.93793 45.80040 52.59244 55.32256 59.99345 62.39784 66.98469 70.14495 79.06268 83.20017 89.94208 94.96682 98.46143 105.90895 108.22912 106.50168 105.60756 105.69850 103.49205 100.93950 99.37124 99.56328 96.72551 96.98745 97.58666 97.50443 97.60224 96.75411 97.41774 96.16409 97.77536 98.15873 97.76061 96.15994 97.88719 97.52277 97.65608 97.07055 96.40835 96.74041 96.19644 95.51050 93.85289 85.81060 83.04464 76.87748 74.28260 71.01740 74.94108 85.17536 91.45197 95.08348 95.35222 97.46715 97.58411 98.77187 101.29884 100.37140 101.05620 102.64250 107.78930 108.04419 110.05957 108.00626 105.26860 97.53446 95.10819 81.94460 73.03099 69.72495 57.82057 47.83258 45.83404 40.00875 38.41476 36.86540 37.67055 33.50496 35.88489 34.35367 33.11997 32.91671 31.39099 29.25310 28.76306 30.02201 27.50193 27.09806 28.64719 27.70717 26.09048 23.60321 25.06208 27.99239 24.43154 23.41957 24.92474 25.53966
26.07916 24.47586 23.45834 26.58700 26.26528 26.03790 26.86189 24.01404 24.40054 23.64350 27.88568 26.57289 24.22174 25.66872 26.96850 27.74314 24.10215 26.58660 26.85043 29.01774 30.94060 31.10474 34.01157 33.80284 39.63635 45.41977 48.58081 52.35062 58.54458 63.37548 66.03556 69.42917 73.33440 76.03736 80.05368 81.64432 87.18909 97.79661 100.85690 106.31316 107.42326 107.53233 104.95515 102.81915 100.42456 98.84958 97.54403 96.45319 98.77348 97.70757 98.13275 96.07536 97.61751 97.03780 96.97725 96.85746 98.29619 96.55661 97.63379 98.20596 97.45192 99.66968 95.25362 95.58250 97.34573 93.97062 96.85432 97.22920 89.44448 85.54452 86.96317 81.05969 74.18043 69.50990 86.20670 86.93239 93.15348 95.34786 95.11764 95.37676 98.32526 99.66300 99.60562 102.91983 103.74912 107.49784 109.56232 110.75033 105.75696 107.16689 100.61594 93.94764 88.20290 77.23624 74.57929 70.38708 61.63574 50.65489 47.18960 45.20549 42.70133 40.68409 40.60501 39.94401 41.52365 36.12427 36.87110 33.85363 32.23590 30.88288 30.29611 30.10958 27.98872 28.63237 24.98060 28.45831 28.78355 26.34933 24.82604 25.98790 24.93094 25.46036 27.29268
24.31560 26.15262 27.17760 25.61659 25.38994 25.06647 26.44403 25.66811 26.80606 26.18161 23.64125 26.53805 26.88059 27.31512 24.56555 27.26424 27.61144 28.93954 29.30632 30.28679 31.99126 33.10449 36.59291 37.96925 39.85076 43.94375 48.05585 52.31171 51.43846 59.50769 62.53623 64.50612 67.05304 70.75950 68.69045 75.28522 80.51736 89.95755 96.35579 100.61249 107.28680 106.18675 105.29434 101.19387 102.08656 101.70821 100.86177 96.33763 97.65205 97.43749 95.84973 97.48396 97.34935 98.01039 97.40123 95.93972 99.00712 97.95795 96.01242 95.74964 98.04603 96.89618 97.74011 96.50005 96.62173 96.99663 92.61054 93.23493 93.98268 92.48911 89.64367 80.68517 78.99836 63.10528 66.79004 80.73200 87.92236 89.67481 89.97920 90.81528 93.18111 96.50295 98.47824 103.58615 102.58123 107.30167 109.25344 107.51170 106.24371 104.28087 101.91353 94.98169 89.06199 84.26449 79.61997 72.42030 65.91010 61.48808 55.36248 49.60722 50.89630 44.93523 43.98626 42.87118 39.49440 38.96586 35.33461 35.18060 33.62384 31.36713 29.09024 29.09136 31.48805 29.07158 27.27473 25.93670 25.59295 27.43656 28.75617 25.72742 25.11823 23.71714 25.41011
24.37737 24.23795 25.30914 25.41197 26.57896 26.42568 23.46002 25.10239 25.45335 24.55311 26.08773 25.57941 26.41425 26.95901 26.85991 28.58386 29.98050 28.36823 33.96692 32.86768 35.94118 34.29794 37.30964 37.51980 40.97385 39.22030 43.69074 46.39647 44.74390 52.51521 55.55281 58.91869 58.46620 57.86639 61.89844 72.75233 77.32071 86.66585 93.96312 100.25627 106.81534 108.16003 105.18290 102.58424 103.94638 99.32372 99.77475 99.83340 97.55561 98.35402 96.10671 96.85456 98.27703 96.16412 95.88392 96.85810 97.73285 98.03768 97.41020 96.99170 97.14054 96.47894 96.83157 95.95367 94.66228 99.00388 95.52041 92.49768 87.32621 84.72507 80.57142 79.21234 71.24325 69.99967 72.39492 60.26562 74.38645 83.38568 82.44706 77.05193 85.91439 96.38083 97.27493 101.67014 103.52969 106.69639 107.97528 104.37051 106.65031 97.51959 96.92059 88.31561 87.46372 83.12183 78.78524 73.28956 69.94792 62.99550 58.42606 58.30472 53.99546 49.94798 48.69683 42.87238 41.20571 39.03301 33.70568 34.54443 29.87065 31.29408 30.80311 30.42347 27.31232 29.04974 30.42753 27.97657 26.79118 25.84657 26.32647 26.06295 26.00081 25.88228 26.08275
24.86354 28.22874 27.35363 27.09697 25.71371 26.86519 26.00430 23.94461 24.92473 26.92080 25.45610 27.05222 28.23875 26.59246 28.43958 27.13154 31.25057 31.43622 31.52204 32.91684 34.88666 34.62354 34.59880 34.61339 34.48172 38.12828 40.03202 42.78706 41.47425 43.23014 48.38295 47.73757 50.91914 55.48000 62.42804 68.91422 77.27354 86.86300 94.06600 100.04739 104.19148 106.53156 107.36546 102.63447 104.07454 102.03372 99.45334 97.61917 96.73469 98.56989 99.04619 98.16909 98.42303 98.69568 98.08791 98.01385 98.50931 96.35761 97.87413 96.96439 98.21873 96.42812 97.87144 96.69320 98.54725 96.72770 96.35437 93.99428 88.66134 81.41972 87.24849 91.38411 79.30688 86.78419 84.41342 66.81942 67.67953 70.25841 65.38641 65.38111 82.95534 90.93640 92.89618 99.35920 102.80865 104.83384 104.34460 101.65181 100.63897 89.32731 87.35233 83.42118 78.25414 73.62581 69.68958 70.18737 64.27532 62.97185 59.42206 56.90670 54.43848 50.46322 47.76626 42.93068 40.66859 35.73191 33.75600 32.22578 28.69425 27.80784 29.29532 29.54241 26.16923 26.69638 25.85022 26.49828 26.98860 27.97870 25.66790 25.46380 24.90807 24.68334 25.07975
25.24272 26.80792 25.96155 25.81771 25.96309 25.50449 24.69582 24.85064 24.11670 25.58592 25.99032 26.30248 29.07307 28.34565 28.24127 30.34863 28.69264 30.41935 30.00364 34.46418 31.96441 31.94564 30.82139 29.14719 32.40030 31.85476 35.95257 37.83990 37.19520 42.02917 45.95161 48.68170 56.62277 57.07894 64.26541 71.20179 81.85919 86.63837 95.97698 103.47365 105.80141 107.63157 105.42874 104.50071 104.67250 101.19774 97.57432 96.89358 99.13149 97.22940 97.49610 98.26669 99.74650 97.55724 97.39198 98.49412 97.85218 95.44377 96.47003 98.22943 97.63449 96.67250 97.24516 95.55755 97.86025 99.47875 95.15128 93.49085 84.87418 89.14548 96.33061 91.69770 85.14102 90.16178 85.32127 76.23864 62.19351 63.24122 58.21213 62.20762 77.41170 80.61722 83.73776 89.15720 92.54759 97.85351 93.93355 91.57210 91.39754 89.23399 80.15358 75.11439 66.81710 62.51404 63.57992 62.63475 63.28170 58.39062 56.14682 53.06218 49.69623 49.72133 49.21576 43.60488 40.46291 36.47840 33.88540 31.22114 31.02444 26.56692 28.75945 27.89875 26.93930 27.33755 23.50451 27.33846 28.52952 26.94000 25.22156 25.61309 26.27847 25.29579 25.42231
24.53334 23.48375 24.03339 26.33939 27.25279 24.70362 25.51355 25.01388 25.56681 28.13859 28.16791 26.52695 26.80845 27.12928 27.55866 28.59516 28.02811 28.47275 27.76316 28.43575 30.08023 28.77031 29.06254 27.97722 32.71374 35.36947 38.24933 41.77357 41.61558 46.94948 50.29335 55.14554 63.27611 65.70987 72.81383 77.35476 85.64121 92.00223 98.53567 101.64455 106.25457 107.64977 106.54351 105.08953 103.16166 101.35935 100.48860 99.46082 100.35886 99.03648 97.78401 97.21995 99.51543 98.18954 98.30272 96.20879 96.86091 95.39636 96.74825 96.58271 96.52368 97.44230 96.10165 96.29250 96.17772 94.55844 90.72781 89.11972 89.01152 93.44523 94.30260 94.20462 91.83458 94.55458 91.67514 86.60353 77.17530 73.09784 61.83393 53.19309 63.05940 55.17441 68.13973 71.07297 76.13892 78.86574 75.81969 70.83054 75.86741 76.03647 79.79712 74.35062 65.02819 58.18122 53.22650 53.29424 51.16217 51.22938 50.50945 45.01639 43.20892 48.39543 47.24443 46.36442 43.38500 39.52174 35.83627 34.41440 30.84181 30.78104 28.56190 27.56180 25.52737 26.35537 25.26435 25.94225 25.30930 25.70268 25.29083 26.44669 24.83148 26.07304 24.33649
25.40041 23.89918 26.78669 25.21192 24.23246 24.34380 25.45487 25.77216 24.30511 26.57829 25.10184 25.06966 27.50095 27.92002 26.25388 30.19209 27.51912 27.88321 27.98762 27.87241 27.27513 31.78595 31.71146 35.01743 36.01128 42.37130 43.60608 46.47348 43.80751 51.61779 56.30044 62.19084 69.89416 73.04153 73.90199 80.58806 84.32070 90.50906 95.74037 101.30151 104.08716 107.14913 106.27224 106.24690 102.56780 103.80732 102.23944 100.08442 98.45258 98.29015 97.93089 98.63549 96.84821 97.54961 98.15071 97.03702 97.88936 95.60121 99.11408 95.69114 98.66832 96.75330 97.38830 93.81155 95.61218 95.99430 93.29051 93.50055 96.19737 94.38293 94.33411 96.74679 94.49465 95.33015 95.56568 91.65828 89.28184 77.69848 73.59851 61.34465 54.05190 45.58805 50.03737 55.51885 58.58085 58.56560 58.67588 53.37063 61.56947 59.77762 67.18671 70.07059 66.42807 59.65519 54.28857 48.31492 46.03541 45.70793 43.31986 40.71142 39.80558 41.93995 42.71364 40.64207 44.56449 40.88879 41.17345 35.91166 33.05212 33.57875 29.32035 28.04533 26.33149 26.90028 24.89703 24.64282 24.37983 27.05615 25.45476 24.34520 24.09856 25.47886 26.61492
25.22115 26.95759 25.64707 24.48425 24.50210 24.35716 24.84703 24.68052 25.87846 25.52578 23.99717 25.92872 25.10569 24.82166 26.91219 27.53920 26.85396 28.69300 26.49278 30.02742 29.22473 29.81490 36.13054 40.04580 40.54171 45.43742 50.09860 52.19549 55.70327 55.41584 60.27254 67.46896 71.89850 73.99018 74.25317 75.30350 79.75293 81.50297 90.35113 95.00757 101.42821 106.49805 108.76213 107.16384 104.39745 104.40545 103.92332 101.01211 101.85183 100.06793 97.73584 97.27860 98.16094 96.64303 96.41986 94.77440 96.18358 98.09859 97.76532 97.70167 95.91805 96.63570 98.09232 96.58147 95.60407 96.48036 95.63409 96.31668 96.77213 97.51555 94.62132 97.03232 96.26156 97.09624 95.76159 96.78029 95.46655 91.82186 87.02707 76.83901 60.67711 60.41953 57.01953 51.49189 45.40324 39.92814 43.43974 35.69402 33.77468 37.68660 53.80454 59.63319 60.40958 57.56374 54.27655 49.53181 39.50592 36.40228 36.84894 35.29091 33.83194 34.09580 40.89210 41.19415 41.78305 43.20964 40.14465 38.24368 34.29507 32.88688 28.96075 27.08575 28.54655 24.50968 25.42764 25.29126 26.96077 24.95863 26.83097 24.39238 26.44849 25.32140 27.09529
23.41812 25.81920 24.20538 26.16662 23.22070 25.03194 25.13127 26.16646 26.61618 25.87038 24.25023 25.56343 26.52514 25.85595 25.86225 26.30643 27.63707 27.75750 31.46821 29.39276 29.89112 34.93946 35.52019 39.19656 45.02170 50.12070 52.15304 55.79962 60.38949 61.46754 64.05912 67.66228 71.63556 69.99168 66.96396 69.19724 70.63494 76.27319 87.70521 95.60262 98.31986 104.29844 106.96961 106.72266 106.76405 104.49719 101.67617 102.27705 101.60234 98.39686 99.92449 99.07694 96.72980 98.58876 99.81422 96.75898 98.00472 98.79707 96.94660 98.86367 96.39035 97.64261 97.52216 97.24138 96.52490 98.92652 96.89807 98.51463 97.54196 95.95592 98.27482 98.72772 98.82948 97.93036 97.00022 96.58584 96.14431 96.95498 93.24114 84.59768 79.76137 81.29905 77.61804 72.73942 71.78626 66.58302 62.63551 50.53718 47.88321 36.32782 36.41678 47.42965 48.56020 47.04516 46.79986 47.60827 43.45054 40.78925 36.80531 30.82329 30.91021 33.47891 33.30079 35.09696 36.63087 39.30507 39.22411 36.80195 36.07721 33.70816 28.19890 31.14933 28.53465 26.47931 26.26668 25.53948 23.71760 27.40816 24.51787 26.32218 23.87641 25.50462 27.32993
24.57321 25.56112 25.59378 25.58165 24.45025 25.05671 26.13632 27.37963 25.79763 26.02552 25.87664 24.93556 25.59912 29.16012 25.56401 27.52621 27.19324 26.74944 30.24502 30.24154 33.55094 32.25238 37.25164 40.07908 41.86962 47.74931 52.22504 58.39902 59.79391 60.32130 64.45480 63.51678 63.98294 62.96510 61.64018 60.33152 64.93483 74.83607 75.45321 90.75321 97.79850 101.98322 104.91152 107.14355 105.13270 106.17024 104.22935 101.59774 101.46172 99.36900 99.99001 98.96169 98.31907 98.84019 98.23050 97.96652 95.71212 97.60348 94.98312 98.71758 96.00284 98.16549 97.76096 97.82881 97.10516 95.60837 97.12870 96.30911 95.47069 97.86949 98.18603 95.85743 98.06965 97.58275 97.90569 99.05211 99.99085 101.16978 98.90965 94.29129 92.57593 98.12928 90.52960 90.38672 91.50216 80.05034 80.40264 66.88235 59.41630 44.60692 35.23101 33.92741 34.05648 38.82872 41.54007 41.57695 42.18824 38.31893 36.23061 30.84497 29.19785 28.63696 27.58065 29.80114 31.44217 33.63578 35.67142 37.50875 34.72715 34.55372 31.44249 28.95450 27.71436 26.90716 25.35451 26.17031 22.73605 26.29416 24.46797 23.20523 24.45067 24.29475 26.06050
26.30350 26.89412 23.89131 24.89237 25.27851 25.95417 26.42597 25.63801 24.54258 25.51451 25.77044 25.71826 27.09636 25.77481 25.37161 28.93562 28.22346 30.93344 31.61687 30.66094 32.52205 33.04793 33.56730 37.14538 39.26386 45.40080 51.61025 54.22864 54.46667 55.82101 55.68234 54.10256 54.92169 53.69241 53.38556 55.49717 58.64153 69.89584 74.96891 84.25704 92.73563 102.85484 106.37052 109.56465 105.70880 105.70678 105.22353 102.60841 103.03560 101.00984 101.53771 102.06110 96.60313 98.61298 101.17939 99.26895 99.18704 97.50045 95.70432 97.17827 96.36164 97.49363 97.67591 95.76443 96.97488 96.31529 95.01214 98.61216 96.72441 98.93308 97.76830 97.98732 98.28124 98.15886 97.84574 98.79483 98.96849 102.80265 102.86370 99.14803 102.45751 101.25838 102.87352 104.62932 100.17329 95.40482 90.34749 78.30586 71.34248 52.55507 45.11269 38.04767 30.34699 32.35615 31.29289 34.02383 36.34972 32.28750 34.13939 32.52822 28.11677 26.53293 26.17624 27.16269 27.47368 31.85017 32.47878 33.25012 32.80938 32.47562 30.58779 28.70950 29.58796 28.87365 27.93199 23.56752 26.60955 26.49633 23.85455 25.52124 23.53870 24.18435 24.75940
25.20455 25.12314 26.23587 24.21860 25.62467 26.66367 24.41398 25.49833 25.91755 25.64461 25.76044 24.90688 27.05954 24.87280 27.86465 27.96135 29.14867 30.58343 31.07569 29.67947 30.43492 31.88032 34.53427 37.57623 39.96656 45.92013 51.04354 50.98714 50.16929 48.58257 46.11259 49.92193 45.85075 46.30651 50.41551 57.67078 64.82522 74.02709 80.55275 89.45859 92.74508 100.15885 105.29968 107.51853 107.83635 108.69939 106.65029 105.14347 102.91243 103.22251 102.08501 100.90421 98.67922 98.70672 97.11436 98.48285 97.72094 96.43007 96.22494 96.93963 98.00911 98.68185 95.40852 97.70586 96.85524 97.12123 97.70868 94.84761 97.18947 97.26388 98.44319 98.74791 98.24622 99.41845 100.49075 99.47671 100.78526 100.02983 103.18905 103.69137 106.34996 105.50622 109.40712 106.87336 106.07195 102.26341 95.69222 85.25985 75.11306 70.99234 56.62730 49.42871 45.21390 42.67342 35.32244 34.46865 29.42138 30.02252 31.16196 26.82362 27.15980 26.53818 26.55801 26.79306 26.95159 28.16019 29.71616 30.70288 30.42156 30.38566 30.66955 27.55717 28.87915 27.48402 26.09517 25.66446 25.49492 24.81566 24.30296 25.78803 25.64279 23.64424 24.85332
26.23573 25.31761 24.09930 25.12629 25.27419 23.98800 23.91365 26.19889 24.75762 24.87957 26.44840 26.85663 28.14176 25.59320 25.07800 28.41619 28.16748 28.16592 26.47627 27.74585 30.66721 34.97192 33.31907 36.28230 41.56296 46.57856 48.20737 42.71108 42.22561 41.45944 44.93023 42.54535 43.22015 51.78478 58.67778 61.41703 69.44059 76.52127 82.98483 86.85538 91.22586 95.72999 102.21616 106.26111 109.02100 107.54778 109.16475 106.90159 105.92179 104.34676 100.97519 102.60080 102.69151 101.40893 98.48120 99.63749 98.97813 97.18332 99.76085 98.89888 97.84050 98.99603 97.69658 98.45058 100.29209 97.29869 97.21849 96.70316 97.70279 96.87555 99.76599 99.79206 98.51763 100.57156 99.76457 99.18577 100.62865 103.17169 104.60072 106.56596 107.09874 107.28429 109.37790 105.28865 102.12709 98.64609 92.40137 87.12547 81.63439 73.44166 68.95849 58.41767 57.97528 52.43410 45.08997 39.46357 33.81251 29.16373 26.45752 28.51485 29.83796 29.09925 27.33758 26.54967 26.41661 26.13984 27.00472 28.75448 28.67075 30.32738 27.49629 28.31544 27.00048 28.46741 27.17452 25.41661 24.82051 27.63088 23.85998 25.67551 25.87470 24.29985 23.54806
25.47602 23.58743 25.08154 25.68283 25.19884 24.00079 25.76353 25.48485 24.47510 26.74399 28.81467 25.24695 24.47606 26.80203 27.25576 28.89314 27.09389 26.36982 29.65345 31.32139 30.68219 33.53493 37.48552 42.17188 41.71507 43.50676 44.65807 41.25997 38.11789 37.04259 41.42448 45.27606 49.41157 54.95017 65.60204 67.86600 71.46731 76.48135 80.25020 81.91075 86.22492 89.56118 96.19816 103.35552 107.40191 108.30126 109.72847 107.35162 105.36459 104.93617 103.37127 104.28251 103.32222 100.60701 98.17589 99.40834 98.26186 98.00718 97.06612 97.64486 99.97963 99.44046 99.71694 99.28926 97.24939 99.17090 100.33531 100.26683 99.15790 96.28528 99.16313 99.84173 101.51579 101.31391 101.46442 103.82588 102.98910 105.28053 105.37308 108.06634 107.79631 106.95511 105.43154 103.25245 97.38552 90.22906 86.10864 82.78942 79.60279 73.36848 71.55424 66.88776 63.60726 60.85857 51.03773 41.21049 37.16502 32.13075 31.99031 33.22787 30.68380 33.80705 31.85217 27.82619 25.89419 25.53742 25.89811 27.09841 26.59490 25.13584 27.45897 25.78860 25.86843 26.50321 26.89100 25.51688 24.01962 26.73284 23.17213 25.29327 26.77518 26.11574 26.40569
24.77190 25.79374 22.57547 26.04695 25.06366 25.05133 25.00355 26.20562 25.47147 24.71498 25.89601 24.39595 23.84751 27.91288 27.21193 27.73023 26.26624 26.58172 29.25407 29.18225 33.18109 33.85495 37.89454 39.74702 39.94225 39.95950 38.71585 36.10380 34.08166 37.32499 42.92144 49.59017 49.82935 58.06546 63.52021 66.55175 66.80117 70.85609 70.44398 78.19153 81.60337 89.32779 95.70439 102.38641 105.83939 109.91646 108.64085 107.65793 107.95969 105.58178 107.10995 103.97411 105.90723 99.83238 102.58265 103.76929 99.51467 100.59549 98.38688 99.55653 101.29842 97.74479 98.79371 98.76094 99.68753 98.03151 100.36166 100.71172 98.64652 97.62956 101.19075 101.81541 101.09432 101.26475 105.78881 104.87848 105.35046 102.94756 107.44754 108.13774 108.36984 106.90577 103.11006 97.53640 94.47182 87.13398 77.99255 74.88360 69.18760 69.91177 64.95458 66.96956 66.65448 62.13372 55.08465 48.83593 41.90093 38.67612 39.71185 36.29259 36.11674 36.72429 32.44153 28.84689 26.53842 27.46732 26.14330 24.62081 26.71858 24.88871 25.18720 25.27614 25.27288 24.65074 26.77086 27.13347 25.94370 25.29869 24.46729 24.50834 25.14013 26.75631 25.83882
23.72505 23.59670 26.40193 26.73461 24.71516 24.53611 25.39767 24.36053 26.79413 24.61396 25.01449 25.29119 26.35591 25.05422 25.42873 28.04999 25.25213 25.98695 29.12911 29.81174 33.19975 34.19563 34.78501 36.40302 34.83567 34.67145 33.40686 32.55244 34.66602 38.71185 41.60215 48.99474 53.17681 55.14278 60.33438 60.00086 57.57406 64.16758 70.99772 74.85576 82.40832 88.61316 97.43429 99.90963 103.07061 106.83838 106.93616 106.51995 107.42684 106.57037 108.05221 107.87715 105.73396 101.10502 103.46632 101.17711 101.46126 101.39508 102.36951 100.70104 100.78841 98.95912 99.87018 100.07909 99.23362 99.08365 100.31596 100.11089 101.11713 100.37283 101.33792 101.03607 103.75849 103.66459 104.45286 105.05353 106.64153 105.34250 106.73764 106.70636 106.32817 101.24366 99.38939 96.78002 94.37470 85.78130 76.27009 64.18243 61.31916 60.39810 57.49185 58.40611 60.65895 57.97903 58.74476 50.92574 47.85627 46.82931 46.97362 43.07122 41.82086 38.38760 38.08559 33.53795 30.61655 28.31694 30.08731 25.82060 26.01220 25.26524 23.62650 26.52167 26.37018 26.17525 24.12680 24.11661 24.93221 25.28711 23.30290 25.32735 24.05321 25.32539 26.42723
25.94263 24.82738 25.06407 25.08481 24.34180 25.42143 25.39954 25.29999 25.06407 24.86926 25.04700 23.93694 25.03889 26.25195 25.21943 27.02861 27.14505 28.22043 27.47517 29.54007 33.31501 32.68447 33.86937 30.59822 31.74307 32.33099 30.88634 34.07779 35.91407 40.74169 43.77645 48.49197 50.50090 52.85894 54.35254 50.43993 55.77228 66.72007 70.67092 75.78501 82.58495 87.42885 89.38861 93.96149 98.33297 102.99036 103.37940 105.16890 105.05332 105.78645 107.19301 108.17731 104.98081 105.42761 103.58755 103.81710 101.45784 102.55024 104.02766 102.16138 100.47399 100.98340 100.44139 99.98495 101.37171 101.12686 100.91600 98.75516 101.57678 101.74172 100.61253 101.86843 102.90484 106.01061 105.08820 107.96802 108.04646 108.40890 106.36181 107.16891 99.04540 97.84963 94.36048 91.54031 87.59103 79.93995 70.62352 62.11605 55.74628 51.44003 51.82781 50.73575 51.21786 52.58699 55.44556 55.44084 54.51469 53.24550 49.07797 45.69372 44.58610 41.55432 39.73617 33.76952 34.47828 33.40195 28.64205 26.50092 26.33574 26.88327 23.99302 25.20797 23.39065 24.81752 26.90367 25.55877 25.34989 24.68533 24.92709 24.27063 23.62721 25.27596 25.49197
23.37535 25.99630 25.22908 24.58086 26.90510 24.16317 24.85528 25.89639 25.35356 25.94706 26.06700 27.22846 23.32187 24.80453 24.92132 25.18671 26.66387 26.63986 30.69241 29.78031 29.50773 30.69878 30.28056 29.75730 28.58934 29.17598 33.09789 35.28190 37.92106 37.48558 40.71774 44.79393 43.61856 44.60391 48.09930 54.65691 63.68964 68.62735 73.43971 78.22133 78.49679 79.19102 84.85507 91.24639 94.55600 95.83998 95.63876 94.96398 101.84934 104.69608 107.44549 109.50313 107.12271 108.51446 105.10029 106.70304 104.08499 103.81067 104.64504 104.40605 102.54798 103.22704 104.55202 102.60558 103.09815 103.13599 102.02783 103.00231 103.02298 103.29296 103.58650 103.54812 106.29863 108.53812 108.76173 108.73705 107.69330 107.75125 103.72507 102.72901 94.87603 89.68378 86.02621 85.45256 85.04614 74.01527 66.73224 58.02535 51.35884 46.87740 45.01776 44.31119 42.31150 42.85743 49.44419 50.75286 53.14505 52.17783 53.67653 47.53735 46.70493 41.65257 37.22345 37.91821 36.01603 30.78781 31.95436 30.43098 27.61460 28.18789 28.24224 27.93732 24.91994 24.80633 26.88292 25.73295 24.54067 25.10831 24.42059 24.26950 24.46569 23.05926 25.90299
26.44717 26.09502 25.65570 24.54153 25.24072 22.84849 26.07372 26.84073 25.42663 25.06793 23.25815 27.14254 26.79002 27.56437 26.08917 25.62263 26.15419 26.41937 26.47239 28.15359 30.04187 30.31724 28.92117 28.11759 28.52127 31.06223 35.37922 35.70587 35.99084 35.80644 39.12937 39.59923 43.15038 46.13128 52.93550 57.40070 64.54733 70.09744 71.84463 73.46170 71.54032 73.73283 78.68751 85.46329 90.71102 89.00319 87.37685 89.37459 96.24762 97.85459 103.35163 107.25152 108.74622 107.36727 105.91509 106.34848 107.45173 106.06760 104.21384 107.17303 102.60141 104.52433 104.91121 105.31079 104.35541 105.72380 105.39561 103.82439 102.72090 104.91325 104.97530 106.30468 105.81299 108.05981 108.99120 106.85512 110.75373 105.78333 103.39219 98.70153 93.43422 83.32460 78.45384 77.42809 74.89950 72.67563 64.17954 58.15143 51.81246 46.06475 44.58675 39.98605 38.82941 40.33121 42.42038 45.34651 47.57070 48.75150 49.92672 46.54778 40.77177 38.93046 35.96902 32.67158 32.80956 30.94954 30.47180 30.34431 27.72854 29.53955 27.69510 27.60531 25.82771 24.85815 24.78692 26.26444 25.82328 27.32921 25.18329 26.63687 25.74767 26.14479 24.45260
25.98094 24.49509 26.24731 24.55751 24.66947 25.32434 25.82463 25.76677 25.76205 25.38826 24.93218 25.96625 25.92303 25.23585 24.53090 26.09087 26.66449 25.67515 25.48896 26.88108 28.39348 26.33989 26.37592 27.99984 29.92166 33.63043 33.87603 35.77523 33.13451 35.50519 38.15433 39.30989 44.12496 49.09583 56.94516 62.17778 65.05772 68.19098 65.64785 64.79613 64.64068 71.31940 76.58868 82.98716 83.54822 79.04384 78.29047 78.35621 86.70197 92.52305 100.02757 103.90442 107.76664 108.57552 108.75418 109.47967 108.89167 108.67186 108.21965 106.94034 104.43360 105.67667 104.71263 106.94381 107.48952 105.85313 107.02686 106.58688 105.39138 107.00418 107.47706 106.31970 107.63972 107.19355 106.83435 107.74085 106.04305 102.40191 97.92154 95.95119 88.95637 80.38629 71.45110 72.77211 72.85344 73.89185 67.54290 67.33138 57.51662 52.14682 47.22293 42.68725 38.12239 36.21877 36.91207 40.92740 45.02287 46.20845 46.43940 44.17308 39.97359 35.79401 34.28803 33.43201 31.37713 28.45982 29.52183 29.49751 26.62647 28.37752 27.73760 27.02812 26.79542 25.57412 25.44582 23.89584 25.18947 24.20083 25.27389 26.13501 27.29511 24.55883 24.13767
24.87937 23.28170 25.75135 23.32163 25.42904 26.31675 24.77134 25.05888 25.02649 27.13686 24.49493 25.56675 26.39149 25.90355 26.40075 24.11802 24.91445 24.74434 26.84327 26.20758 25.49910 26.90623 27.93620 27.74603 30.06049 28.96022 29.77738 30.32382 30.32992 32.49885 39.01572 43.74168 47.52516 51.44917 56.39534 62.76869 60.25708 63.38564 61.36357 59.16679 63.44784 71.15130 75.45744 74.74438 78.55134 67.60870 67.36070 69.97658 77.19993 84.27739 97.79244 101.32216 105.80793 106.76279 108.45261 110.23625 108.35571 110.90321 111.65068 107.09072 107.71216 107.48177 109.27854 107.88418 109.44030 109.35023 109.20022 109.11331 107.78587 106.77458 105.70809 106.60548 106.81520 107.62082 103.52225 103.58794 105.43807 100.38338 96.66267 89.36593 85.78006 79.49741 66.37210 66.26707 66.50303 67.32789 66.61061 64.37665 60.08755 56.10583 48.68686 43.16778 38.76922 34.05993 32.77849 34.44313 37.13458 40.22085 45.34112 41.22834 40.63968 34.28007 32.16343 30.98669 30.14510 27.97768 27.99860 28.44129 27.75361 27.19256 25.11444 27.27940 27.01575 24.60622 25.88952 26.23811 24.26567 25.86037 25.86681 24.13638 25.04365 26.88523 25.59861
24.24405 26.25838 25.52844 24.92393 26.37939 25.09120 27.23794 26.83174 25.16414 25.65970 26.00698 24.92278 26.13617 25.24552 25.58536 23.96039 25.42465 27.21500 26.31715 27.46598 26.86262 26.75415 27.42920 29.34427 30.09660 28.61491 29.38586 31.58658 31.00939 34.59467 40.25980 42.37000 48.71056 54.05582 57.87501 57.95086 55.62246 56.34029 51.26790 57.15852 61.14650 71.35420 71.42755 70.85454 66.03273 59.68030 57.59909 62.26918 72.78281 86.47917 91.33221 96.28958 102.88241 102.81811 105.92856 106.19709 109.31641 108.80030 108.31879 109.32053 107.47828 109.08627 106.72863 107.03293 108.01814 108.29849 105.60433 106.77990 106.46927 106.39187 102.82817 102.23376 101.58689 103.39542 98.82242 97.83271 98.19982 96.16342 91.93368 82.50363 81.76178 78.90399 64.84107 57.62171 63.24192 61.08546 64.00503 62.74261 58.75423 54.12889 46.76473 45.64701 38.34280 34.34484 32.45451 33.51992 37.07952 35.47674 41.36265 39.54530 40.83715 36.84533 33.62087 29.38011 30.07802 27.44689 26.06042 27.20851 24.90061 25.36420 25.57100 26.52802 25.15978 26.01184 23.74961 24.06678 26.62267 23.87404 24.30649 25.62782 23.88192 24.99074 25.94940
26.11389 26.36243 24.96889 24.90743 23.76633 26.42892 27.37410 26.28420 25.75932 24.04544 24.00735 24.83781 25.40708 24.25865 27.04699 25.44531 26.38398 27.05238 26.37873 28.41924 28.53418 28.61765 27.67765 25.96964 28.34457 27.30010 30.83110 31.05584 31.94015 35.03360 41.92156 44.83271 51.19977 53.69348 54.97011 50.09233 49.14522 50.57691 49.01640 56.63075 63.17395 69.35247 65.26513 59.56591 57.17644 58.14060 55.48718 64.38081 77.07288 81.81713 91.79968 93.52595 97.21028 99.52905 99.33183 104.29874 107.39732 106.63286 107.29394 103.77600 106.90636 104.98481 103.42775 101.78997 103.09401 105.49028 105.68147 101.12360 98.82574 98.08984 99.28909 95.34171 92.82662 91.23215 92.19682 88.28311 91.53167 90.82382 91.93524 80.11324 77.32463 70.44699 64.08333 56.44148 52.96644 53.07678 52.51753 55.61303 52.86285 54.36953 52.62090 48.02340 41.35330 35.85939 34.25662 30.79664 29.85280 30.73771 34.60909 35.39509 38.44452 37.54585 36.16739 30.68961 30.00422 30.35825 27.94139 28.22158 27.02373 26.52215 26.42454 22.58371 27.28959 25.22176 26.22121 26.21491 26.00448 25.54252 26.09404 24.68300 24.84041 24.80938 25.18251
25.50161 24.35435 24.77882 25.97558 25.20971 26.51892 24.85249 26.26218 23.50558 24.44256 23.83872 25.84934 25.31551 24.19188 24.25850 24.87767 25.00605 28.10038 26.80908 26.55404 27.54254 28.06108 27.91546 27.36366 27.31342 28.95296 29.85091 34.13445 35.07377 39.21282 41.78326 46.32896 46.52398 49.27241 46.05071 44.39182 42.19607 43.87628 50.80654 55.80309 60.58884 61.39503 61.72349 57.42901 53.06635 48.24395 52.50694 66.10798 74.12807 80.88119 89.16875 86.76198 92.91773 91.28174 92.18780 98.44946 100.68459 100.99300 101.50684 104.09726 102.50297 97.27892 98.32139 95.06374 99.59243 96.84493 100.72181 96.31573 93.25096 89.30159 86.60462 84.17980 85.89037 82.65558 85.88187 79.55015 81.47101 84.92288 84.93859 80.82960 72.17136 67.77172 61.92833 57.25845 51.76086 47.18400 45.96312 44.13414 45.43269 49.55503 46.72789 44.07177 40.20943 37.85321 33.62933 29.17739 28.63414 30.39312 32.98847 33.50100 34.52667 35.59869 35.53698 33.89295 33.34333 28.94182 29.29166 26.97209 25.71297 25.63922 25.77272 25.36989 25.22758 27.99931 24.81171 23.82781 25.69543 26.68529 24.98970 26.94108 25.32123 25.16434 24.84627
25.41224 25.53429 23.89173 27.66772 24.62751 27.07984 23.59004 24.78457 23.75542 25.11732 27.93306 27.23483 24.31969 26.26773 27.52944 26.08910 26.37852 26.61050 26.65602 27.04941 26.61630 26.09567 25.62809 27.85797 29.54075 29.82214 32.80921 36.56720 36.94047 38.89020 44.01903 39.81054 42.15338 42.20080 41.52102 38.76658 41.35617 45.46655 50.01494 52.97963 55.64054 56.76581 49.46257 49.39993 46.67977 43.90994 54.26332 60.17927 70.80894 77.10677 81.14590 80.41208 78.98236 81.53924 89.19790 93.19792 92.55783 94.24572 96.11708 99.00031 97.78250 92.82307 87.80176 87.53980 95.46213 92.33048 90.64968 87.24924 86.72072 83.36934 76.32657 74.09345 72.17073 71.22845 73.50923 74.20138 72.08146 76.18340 79.97903 77.23577 75.08162 63.73573 58.52512 57.75367 51.14891 52.06651 46.93738 42.84106 37.63424 40.02365 42.17106 43.79528 40.25488 39.14256 35.49651 31.59418 28.69699 29.48895 31.03608 31.07849 32.96205 34.24905 30.91154 30.50984 31.56718 30.46251 28.26748 26.72661 24.85836 26.74026 26.10617 26.24298 27.47686 25.47003 26.33647 25.80091 23.76845 25.01272 25.46936 25.48366 25.18774 26.82902 26.81460
25.68095 24.16969 24.90325 24.51931 26.71744 26.38563 27.11294 23.54134 27.44474 25.14061 26.31226 27.25718 26.72110 26.69233 25.00239 26.10200 25.68476 25.61794 25.18088 25.94998 27.91830 26.89420 26.31039 27.55332 27.67745 29.12195 33.60230 33.46476 35.43091 38.50341 39.87946 38.65937 39.88944 35.39815 35.67523 34.63251 40.86510 46.28217 49.77695 52.93993 50.80376 49.97743 45.99946 47.10885 42.69397 48.08408 53.64687 62.21720 68.19504 73.81123 78.72982 74.13641 73.31566 76.12181 86.15736 87.34027 88.60352 87.33362 86.23809 85.19510 95.36331 87.76475 80.69032 78.44084 77.29553 85.28849 87.74009 79.40812 72.89473 70.51773 65.96299 65.11883 61.94164 63.57135 66.25327 65.02268 64.47945 69.65271 75.70134 76.45064 71.04906 61.63688 57.61573 55.12707 52.66580 51.62737 50.51504 45.67328 39.51513 36.81240 39.04759 37.38546 39.18965 36.63070 35.64068 34.18019 31.76272 27.33823 27.07165 28.95397 30.28732 28.99082 31.45378 32.12287 31.20705 30.28950 27.56163 27.80493 26.14285 26.62263 27.44090 27.28720 24.46871 26.25930 25.99545 25.15463 25.73875 26.02636 23.98053 26.61710 25.70445 26.39970 26.59919
24.54643 24.01292 26.89520 24.40491 24.53794 25.20967 24.42420 24.29831 25.54537 24.65271 24.77078 25.34081 27.12051 25.43739 25.77828 26.53746 26.98814 24.55715 25.43767 25.19271 25.13701 27.16078 26.49116 27.31314 30.55551 30.73219 31.56119 31.24598 33.81481 36.80767 36.15214 34.62794 34.36519 32.29710 31.46057 35.66928 41.39632 46.31655 50.11511 48.57920 44.58029 41.71842 39.66574 38.42940 44.14791 49.90275 57.49330 64.22130 68.17692 71.79090 71.94842 68.22849 66.31176 72.11060 77.92427 78.98980 81.94869 81.83163 80.93348 84.60935 88.69913 84.58045 77.56511 71.76968 70.93480 77.22560 79.76350 76.71230 66.58948 62.35210 58.46101 51.57425 52.20043 51.59857 56.96281 59.29272 60.14159 66.53311 69.67716 72.39527 68.70752 63.51481 56.51197 46.57109 45.54800 48.99436 45.88762 46.30082 40.73532 36.82721 33.69514 34.32629 35.30144 31.91601 36.08296 33.02169 32.15768 28.42981 27.65006 25.14130 28.99127 27.89572 27.65000 28.91436 29.37108 28.37107 27.41192 27.05535 26.31300 25.19208 26.49167 24.39333 27.28796 25.48044 25.12087 24.16938 26.65379 24.62657 23.87947 25.79804 26.56196 26.86814 28.03301
25.58916 24.62882 26.09109 27.04401 24.13637 24.42751 23.64843 24.97865 24.15299 25.56062 24.09335 26.10280 26.27196 24.02495 25.81792 23.91297 26.10376 24.90540 25.91912 25.67375 27.41816 27.41590 27.72925 28.18651 29.83686 28.82453 31.54361 31.10798 34.62759 33.62142 35.79997 33.93112 29.12591 31.66226 32.42691 37.67952 44.41077 44.68295 46.90164 42.28726 41.17075 35.90970 35.94417 39.42418 45.62733 51.92107 59.90539 61.80183 63.03320 62.09657 62.23755 59.53566 64.72690 69.05091 73.43283 73.34004 72.71946 71.75017 74.51294 81.58954 81.58789 77.22145 70.38676 67.36015 63.26762 73.12199 77.46289 75.06930 65.90667 60.10259 48.69505 42.89155 46.06893 48.53983 52.65536 48.31416 53.54376 59.04381 65.56313 70.74682 70.46221 62.13927 55.20133 49.92432 42.22503 42.88965 43.10240 45.39323 42.06608 37.48084 37.33516 31.53864 31.18509 31.11689 32.99653 32.77611 30.62262 29.99811 30.06121 26.81161 25.55722 26.50346 27.37839 27.35551 26.84171 27.92786 26.14504 28.41101 25.71532 25.23761 26.84993 26.08171 26.24599 25.59324 23.16546 24.33127 23.61305 24.92971 25.41312 24.24518 26.07405 25.65484 23.17085
25.45440 25.13748 24.91138 26.07826 25.65929 25.06111 26.24878 25.63370 26.31661 25.91405 24.56581 24.21347 24.97759 25.40456 25.67650 24.10436 24.80525 24.94823 25.61664 24.59853 25.36341 26.07392 26.79378 27.00806 26.84635 28.90315 30.01104 29.83544 31.76173 34.53306 32.28317 29.10033 29.69605 32.31381 34.75113 37.60600 42.58762 44.78592 42.16558 37.40913 34.24067 31.29294 35.18534 42.89395 46.30440 54.08599 57.29923 55.36963 55.39736 57.23129 58.62775 55.16796 55.87192 60.95419 67.06087 68.62512 66.61443 62.62597 65.24620 70.62670 72.56583 68.82529 62.68086 57.41665 59.12123 64.43758 71.23868 71.41150 62.68685 54.69500 46.11885 40.84317 38.47421 42.11522 43.22503 44.05770 47.41289 56.83336 60.85635 66.74096 69.88817 64.17107 54.80959 48.60146 39.29628 38.67013 43.41609 42.30542 42.07671 38.91752 36.54033 31.42238 32.19119 29.70054 27.90108 31.16703 30.53441 31.37759 28.77597 29.93232 27.35873 27.98508 25.52183 25.51574 27.57846 27.26067 26.94700 26.08908 28.42407 26.40358 24.64065 27.45298 25.13331 26.89747 26.51110 23.80093 25.80280 24.84157 24.89497 25.73314 27.62133 25.78554 25.12332
