-156.90763 -155.12435 -161.42375 -162.06580 -164.63091 -156.91408 -157.16728 -162.35597 -158.42255 -148.54465 -152.22191 -145.21388 -145.06642 -137.25393 -138.17482 -128.86463 -132.48539 -127.84241 -117.34610 -110.16042 -116.00924 -119.11805 -127.30816 -141.96714 -156.31555 -162.24558 -150.45991 -163.32568 -168.54912 -163.75753 -150.93638 -142.82357 -132.08277 -117.17350 -106.57011 -97.52729 -89.27518 -89.26857 -79.72058 -80.25367 -69.48107 -65.88836 -75.15110 -75.79681 -88.39071 -102.81623 -110.00906 -120.09666 -130.56987 -127.39435 -107.63229 -93.57218 -87.97736 -89.72792 -77.05012 -69.68848 -60.97879 -65.13917 -59.72660 -67.65047 -81.53205 -84.52977 -120.15733 -120.15388 -138.66360 -163.15941 -168.17116 -168.73209 -171.28512 -172.02760 -164.76513 -152.41548 -160.20523 -164.75305 -170.68860 -172.65040 -171.96002 -173.98317 -161.60946 -167.94435 -162.47526 -163.12679 -161.00207 -158.45652 -151.30646 -127.20426 -126.08261 -136.88573 -150.79415 -138.77638 -110.66741 -94.14733 -73.84934 -57.91302 -12.96232 6.64831 19.34100 77.40385 96.09157 105.94207 86.53248 77.08452 65.01060 51.01162 40.49923 33.79022 13.82094 12.44084 -1.11454 -7.75681 -8.12452 -8.15417 -4.23356 12.53526 28.32885 32.98910 28.97081 14.19513 15.84150 13.33193 26.11072 47.88531 69.16251 71.67725 72.10296 60.73891 38.34932 13.41565 -5.30162 -13.14460 -15.78172 -29.53055 -20.61283 -5.18686 1.87134 0.81231 -4.96363 -14.55699 -0.72091 -25.54284 -29.84266 -33.46059 -44.08549 -52.36898 -72.76322 -77.54350 -80.69388 -80.32067 -67.31606 -66.01354 -45.11948 -39.22681 -32.87225 -17.67961 -17.87510 -14.65969 -27.07927 -32.81673 -44.28549 -52.85463 -59.31115 -63.20629 -75.00421 -79.66449 -100.89087 -106.51968 -97.61244 -84.16109 -82.84121 -86.02011 -111.52147 -117.76859 -116.81980 -112.25873 -116.41963 -129.12637 -120.84605 -115.63392 -125.95715 -127.79684 -124.14048 -116.12170 -105.37391 -99.48075 -84.33829 -73.74830 -72.94289 -83.37150 -74.35819 -91.06164 -93.76128 -108.85332 -125.59668 -123.02210 -132.03395 -129.60665 -118.78145 -110.59232 -98.53346 -93.88968 -92.72035 -69.97041 -58.03448 -44.61406 -23.60275 -30.68801 -33.91279 -46.26911 -56.24138 -71.50591 -83.55359 -85.42297 -80.13374 -91.17366 -123.83752 -139.39884 -156.97921 -151.16734 -157.85016 -159.22666 -163.32921 -161.29993 -168.36005 -174.22377 -170.55901 -168.64974 -164.76973 -156.53427 -162.35720 -166.46348 -167.17253 -172.16955 -164.01385 -156.57389 -157.37614 -166.81733 -166.08248 -171.19543 -160.01242 -151.84108 -142.23417 -139.25885 -117.72249 -115.54783 -124.09848 -119.43655 -111.83909 -115.86781 -127.56084 -137.38742 -152.09621 -162.93531 -174.59023 -169.70624 -163.77657 -155.51014 -137.17929 -139.79263 -136.87932 -140.08225 -143.04329 -153.49691 -154.11395 -143.35187 -129.89185 -126.63195 -100.54381 -72.81611 -67.02492 -68.16737 -71.97372 -94.28819 -108.82547 -117.71434 -112.93777 -100.59196 -98.81734 -87.08844 -75.51126 -73.35829 -71.46995 -74.62188
-157.99720 -160.43245 -165.42933 -165.92973 -165.74686 -166.07182 -164.46092 -165.88765 -163.60666 -169.40085 -158.63206 -155.77930 -150.25285 -149.08420 -148.14323 -141.79838 -127.50652 -133.97136 -124.52221 -120.97678 -113.20325 -113.69432 -121.96346 -141.19253 -154.13169 -154.61143 -148.84564 -157.08970 -155.57600 -165.89919 -150.06030 -135.06029 -118.88397 -114.41352 -102.75463 -101.28916 -100.01950 -97.25175 -92.31999 -88.19723 -89.43747 -73.28953 -72.75836 -66.46847 -71.29729 -73.85511 -90.27155 -109.02475 -117.66296 -126.15861 -116.97143 -93.51472 -96.86371 -81.18758 -73.29929 -61.40445 -64.67590 -68.01201 -68.28223 -86.05642 -88.68638 -106.19868 -116.79669 -136.22549 -150.16431 -163.13345 -173.06718 -174.89199 -171.17328 -165.75707 -152.44853 -134.80376 -150.54691 -159.76521 -168.92847 -172.76916 -172.10287 -160.40504 -162.61705 -153.05176 -152.20120 -153.28167 -153.54158 -151.65183 -150.83701 -130.54281 -109.27740 -109.47218 -130.36913 -152.44565 -118.30336 -99.58007 -76.92128 -38.44656 -7.14032 14.66017 21.76479 85.65900 95.40799 101.16832 104.34482 95.14275 82.21448 64.14760 49.72142 38.25902 27.97198 12.48754 0.64113 -8.32957 -1.50756 3.50245 9.16776 25.33066 34.14427 43.80575 43.88106 38.77532 31.46380 18.76821 40.73049 52.20503 73.41795 75.88745 73.15249 55.06808 36.09421 -0.19959 -7.21051 -17.58787 -28.60559 -27.14074 -30.69765 -21.44527 -18.55273 -20.59584 -13.65815 -26.29533 -36.19724 -40.95230 -56.85574 -47.62133 -50.69519 -63.77559 -69.10579 -73.76400 -69.43432 -68.32792 -65.15213 -47.75310 -43.93940 -25.17612 -21.13866 -12.81995 -4.85584 -10.69123 -15.14868 -33.20008 -43.08359 -56.15076 -66.91548 -84.96691 -85.34483 -93.98458 -100.63592 -104.81711 -85.85641 -78.40239 -80.66194 -84.52488 -98.46034 -108.25003 -101.30433 -97.34964 -103.04102 -106.54517 -103.96473 -105.68961 -112.79538 -117.94955 -129.99189 -127.95008 -103.64840 -100.75138 -86.29484 -73.60220 -66.51105 -65.11843 -70.31232 -70.00163 -87.40412 -114.27180 -119.03299 -122.34541 -122.31483 -114.62031 -121.67131 -114.05419 -106.26278 -102.38570 -105.08469 -72.73797 -57.40501 -43.50553 -39.52286 -27.31233 -33.52028 -49.71206 -58.28414 -71.51015 -72.13263 -70.54651 -75.09311 -77.53712 -117.18352 -121.82120 -141.63114 -159.86021 -160.28136 -155.10527 -155.82116 -169.40424 -166.81865 -163.45481 -159.17807 -161.70877 -154.15534 -156.31331 -153.67462 -163.68823 -162.60199 -168.37924 -159.88867 -155.79250 -153.01889 -158.81187 -163.27259 -167.35715 -158.50854 -138.46321 -138.93744 -127.35127 -112.42716 -100.41328 -106.74308 -115.15236 -115.82369 -118.55563 -120.91720 -154.78389 -158.57155 -169.50365 -169.96120 -171.91982 -163.86737 -152.46038 -147.78514 -140.41690 -142.82669 -141.95724 -156.16706 -159.04436 -158.62150 -142.60920 -118.63881 -113.87375 -97.31761 -69.59254 -72.38505 -68.29677 -79.22406 -84.21046 -110.85529 -118.72095 -122.94073 -115.10314 -105.27804 -92.72885 -86.25377 -77.21789 -63.24309 -61.55644
-164.57000 -160.81420 -167.36623 -171.13788 -175.44952 -165.89146 -170.76312 -164.56183 -172.88205 -170.25697 -166.54912 -162.16438 -156.92569 -163.68613 -159.85552 -146.85669 -147.74625 -139.51244 -139.64177 -121.56530 -120.40350 -114.40541 -128.04441 -143.17429 -142.60359 -151.14042 -146.96954 -145.06617 -160.72308 -165.77878 -154.39236 -137.95065 -132.57548 -121.32095 -107.62828 -113.19770 -102.93243 -101.08851 -103.02788 -96.72324 -81.98873 -70.81555 -62.38382 -56.01029 -61.62040 -70.06497 -76.84055 -110.80324 -114.10633 -119.81923 -115.70881 -107.55896 -102.47586 -82.38958 -63.38939 -65.32857 -64.70257 -70.23518 -87.43250 -94.45524 -115.70773 -123.80973 -123.06619 -134.38971 -157.60179 -165.67667 -168.78203 -166.38663 -168.86372 -163.18123 -140.84863 -141.53762 -130.13750 -139.03255 -163.54935 -167.32261 -164.99465 -159.16929 -147.44121 -130.89481 -134.51205 -128.87548 -132.77479 -145.36264 -139.39941 -119.27891 -101.73705 -91.16950 -101.63336 -131.55451 -135.95377 -107.81121 -91.07437 -43.56615 -7.32200 16.71804 48.13616 59.91963 101.65434 95.38266 99.69587 93.56347 81.26293 74.39343 64.65512 55.49329 40.59168 14.45448 6.07566 -5.27666 3.50170 15.48187 15.56719 28.31383 41.38104 47.15060 47.08854 45.12287 38.95471 40.00847 47.29977 51.66258 62.36159 58.55757 74.34289 52.48017 23.75254 2.35617 -0.87962 -8.07996 -14.62938 -26.48566 -42.15896 -33.73610 -30.68443 -24.92570 -24.94419 -22.32173 -36.43993 -37.13326 -55.95858 -61.68550 -61.90752 -73.84034 -68.51281 -59.71621 -41.52933 -39.68471 -39.70223 -34.76962 -24.18734 -10.44811 -2.10750 -11.09561 -15.19430 -28.80137 -38.11519 -40.14766 -56.41141 -64.39419 -74.90569 -88.35152 -92.03733 -106.67560 -94.89318 -89.44934 -81.96572 -72.72019 -70.63196 -87.81969 -91.18524 -97.21727 -75.84621 -75.87535 -82.67132 -76.72562 -82.40483 -83.56335 -88.55530 -120.47304 -129.10375 -123.46465 -110.45063 -88.22602 -86.94203 -77.67088 -61.91503 -57.50718 -62.20249 -67.67031 -82.25374 -98.23195 -113.86226 -107.75689 -116.34506 -107.31665 -107.64813 -120.26983 -117.61176 -110.72555 -98.01564 -89.24918 -64.62627 -55.02683 -42.69482 -31.93113 -34.57880 -41.72185 -47.32206 -45.71223 -49.25752 -56.19709 -60.67717 -74.54249 -76.40749 -96.57790 -116.59206 -137.97790 -136.58707 -135.32457 -153.45146 -162.37954 -159.66138 -154.19346 -152.90302 -156.71705 -150.83706 -151.77054 -150.58338 -166.04273 -168.32477 -166.95627 -156.36119 -156.73034 -149.61230 -162.20279 -155.74546 -158.27383 -147.86697 -132.98384 -118.94509 -100.80867 -98.19516 -93.49859 -93.90400 -110.91154 -111.26491 -128.16933 -145.69777 -160.23768 -165.63983 -158.44273 -169.08573 -166.64456 -168.64351 -153.11532 -148.76194 -141.03509 -151.38037 -150.21782 -167.35906 -160.77342 -153.81300 -124.97969 -108.55772 -99.85617 -81.56925 -75.32218 -67.88798 -80.40039 -90.14694 -93.72760 -110.47141 -127.88337 -119.95877 -107.89691 -92.67453 -91.06411 -76.62935 -58.69978 -61.47245 -48.30728
-162.48569 -161.27523 -170.59337 -178.72193 -175.70358 -169.67831 -169.52212 -163.13808 -157.37139 -164.52786 -165.45433 -161.98485 -162.65448 -160.52412 -152.41994 -152.50157 -150.84947 -148.49503 -142.45566 -122.02682 -111.60163 -105.97678 -119.83554 -133.80723 -137.50345 -156.30002 -154.23762 -150.28203 -157.45114 -163.54255 -157.60635 -145.18864 -135.93031 -128.56214 -127.51736 -123.02246 -126.87206 -116.11251 -117.32796 -100.98923 -96.08131 -87.01367 -63.23071 -56.39687 -60.99723 -68.97195 -75.91681 -85.74180 -117.43561 -117.49315 -117.76687 -108.59422 -103.51298 -87.77891 -71.31789 -69.84844 -70.59013 -91.36707 -114.08433 -122.51874 -129.52148 -135.66313 -137.70225 -145.52471 -157.06870 -163.07598 -174.39240 -164.38449 -165.74404 -161.29734 -154.69002 -145.73257 -142.62963 -132.91982 -151.17178 -161.67604 -168.55247 -154.52333 -145.23606 -130.57170 -117.00613 -111.39078 -109.78230 -129.00730 -132.42166 -126.56352 -99.67791 -82.90239 -89.41557 -95.43895 -129.20163 -123.03531 -100.34813 -48.87250 -38.17185 7.52736 40.66215 53.61643 84.80509 97.34758 97.44743 91.19709 74.31096 71.99578 64.89542 73.33002 37.36515 32.89132 9.86543 -2.13343 6.09698 12.76434 18.57306 29.52089 31.85423 44.44359 44.07642 38.87456 48.36920 54.88392 54.67650 63.95776 74.30784 93.68052 86.80214 88.82515 34.97266 13.40218 -1.00340 1.77345 4.04399 -13.57855 -30.99751 -45.85142 -45.70492 -40.85142 -34.99632 -32.80292 -42.02366 -48.48525 -60.79912 -73.66945 -76.13190 -72.34404 -60.07964 -37.37096 -37.05314 -18.72186 -21.74066 -20.46146 -5.30111 7.47991 5.37842 -4.38442 -19.05508 -36.39637 -48.63639 -45.06296 -61.70911 -81.59777 -87.83442 -94.14919 -98.57016 -94.19153 -86.79483 -73.96801 -64.40544 -66.33014 -71.38953 -82.67111 -102.12403 -83.11770 -78.81518 -67.69022 -60.86231 -65.38120 -73.36582 -76.72888 -93.97501 -106.51191 -122.88983 -125.08349 -107.09411 -86.83966 -85.95419 -69.90752 -62.29301 -50.65031 -55.64611 -61.83486 -86.68827 -97.17789 -108.20487 -102.27462 -99.79684 -85.80330 -92.94163 -113.63082 -105.23358 -108.71051 -110.86391 -98.16539 -77.92183 -60.07362 -52.08942 -32.77653 -32.14264 -33.03127 -29.00989 -27.78636 -33.95632 -46.16664 -49.64221 -64.29113 -70.62702 -83.46760 -89.14712 -107.14276 -130.56968 -130.23210 -149.47600 -162.53818 -153.55200 -141.67340 -136.21238 -149.25066 -158.44397 -156.15747 -164.94851 -168.11064 -167.20528 -168.64858 -166.24076 -149.98173 -150.40124 -154.96030 -159.23636 -160.48021 -144.85901 -129.26090 -120.57500 -96.69518 -93.25618 -96.44439 -104.81379 -118.14357 -133.08389 -140.66092 -153.85952 -160.18331 -159.02476 -161.35377 -168.52206 -163.21652 -170.88588 -159.76393 -153.21982 -153.82661 -156.27547 -157.92071 -148.37002 -149.89469 -144.18175 -113.39525 -108.77990 -95.10710 -81.45904 -77.05443 -77.17839 -92.83244 -109.31328 -112.61706 -113.41953 -105.99778 -96.55916 -89.80108 -76.83519 -77.98115 -65.36424 -59.19913 -49.53933 -52.26456
-166.34033 -175.09630 -169.80358 -171.72861 -170.31255 -170.75113 -167.02038 -165.90130 -154.85581 -158.26030 -162.15035 -172.14826 -162.26570 -170.58380 -153.43957 -146.83783 -148.21548 -146.62487 -145.02364 -121.10431 -109.03572 -109.78283 -110.73433 -112.78464 -118.08183 -137.33220 -155.17515 -159.00309 -153.91039 -154.58574 -162.48089 -149.68052 -150.32740 -138.79420 -144.04629 -150.75732 -135.41147 -131.44199 -124.41095 -116.02902 -103.94919 -87.02483 -74.43676 -61.64177 -54.22752 -57.78159 -66.20806 -84.34792 -95.28562 -114.13104 -114.67213 -111.76871 -100.17517 -85.99639 -78.05232 -76.19930 -70.34546 -70.85311 -121.53954 -133.50735 -144.69801 -151.01401 -158.19051 -158.15803 -163.19084 -164.91494 -171.01257 -167.62732 -162.40568 -165.42866 -167.14706 -142.05847 -129.60391 -131.32238 -141.97448 -156.24394 -170.64357 -162.94831 -149.13116 -139.45612 -116.67339 -111.50041 -94.35878 -107.51125 -127.11251 -120.88723 -78.84218 -55.39209 -57.84202 -78.62592 -91.95498 -121.58573 -99.63046 -89.57802 -59.77615 -15.43837 1.99768 22.33617 72.07995 76.53130 80.33005 80.09396 73.48712 66.13491 66.26942 53.62145 49.74314 29.83404 8.01197 0.74041 -6.95874 6.48825 12.13766 8.06276 15.54546 26.41503 28.77353 37.62911 52.85874 75.71203 85.00164 104.72172 111.29297 105.30805 111.25328 91.79444 84.56004 44.82999 14.87937 10.07093 2.18544 -11.06099 -36.69110 -49.88099 -54.29667 -47.77892 -43.67898 -51.25519 -54.88966 -60.07124 -74.14087 -74.80888 -80.36251 -68.28688 -59.27431 -44.09077 -23.05091 -5.27055 1.03909 -3.85224 13.21662 26.95806 8.65930 -1.12830 -24.24675 -49.73319 -53.81897 -66.61677 -73.44575 -79.57109 -91.34873 -95.14482 -100.26263 -78.98723 -68.02877 -60.37619 -56.36728 -61.72081 -72.94147 -81.84840 -87.54902 -71.82815 -65.36786 -58.25694 -49.10897 -46.58525 -58.74132 -76.16020 -90.82818 -106.91431 -100.36832 -107.57387 -112.11033 -94.49015 -88.22207 -62.75963 -52.26423 -45.95717 -59.27266 -69.50670 -91.41031 -89.03253 -89.43527 -95.57081 -86.77105 -94.61561 -89.21132 -94.91102 -104.47965 -103.94113 -98.23372 -99.44600 -77.73636 -65.24094 -47.93925 -34.40042 -29.15539 -31.29918 -18.97542 -19.25419 -21.36370 -35.26045 -51.03122 -59.55488 -57.17892 -71.67274 -86.53395 -109.28729 -120.84544 -132.49789 -153.48863 -157.24201 -154.85941 -130.24448 -138.57998 -150.97212 -156.13684 -162.79918 -160.46387 -160.59089 -167.53678 -169.70717 -166.62902 -154.45905 -149.23723 -147.38542 -153.01811 -161.49667 -156.06935 -141.03595 -116.21310 -92.28795 -89.82179 -88.80225 -96.64581 -130.18193 -130.11155 -147.62232 -155.62686 -146.05035 -141.89565 -143.41628 -157.52321 -161.13955 -174.26443 -161.64433 -166.71149 -164.23615 -167.35522 -156.17570 -132.32343 -133.24740 -123.01214 -100.90805 -95.55157 -88.90769 -90.97354 -92.71223 -90.19501 -108.12928 -123.12510 -132.84373 -119.97262 -119.24760 -90.01327 -85.03008 -74.61384 -73.85735 -62.70339 -61.94256 -57.09772 -49.53648
-180.68661 -166.01874 -169.56038 -172.90607 -172.76770 -174.58427 -169.50273 -164.57749 -164.87309 -156.84937 -158.18330 -162.55519 -157.33198 -150.77987 -147.50125 -137.90357 -145.61636 -148.06583 -136.76321 -129.35433 -109.37264 -99.41076 -103.06242 -105.66407 -125.24120 -138.54547 -157.30782 -153.52223 -139.50354 -138.93231 -137.86861 -149.09164 -145.82881 -154.00148 -149.13865 -146.31959 -134.37654 -132.60163 -119.51459 -111.13237 -101.61572 -85.03055 -71.90464 -62.05340 -61.48147 -64.65940 -69.58418 -71.00141 -107.07206 -110.69023 -115.26882 -115.20650 -97.40830 -84.03790 -73.75667 -73.18295 -72.16722 -68.74253 -104.80993 -113.02515 -134.20449 -151.76145 -170.49914 -166.53717 -166.86837 -174.82058 -169.34098 -149.43799 -158.95469 -153.96962 -146.37157 -137.36061 -134.51066 -116.70854 -117.80172 -152.72624 -160.99574 -166.51081 -158.18485 -150.67205 -137.05999 -109.73483 -94.28868 -97.18829 -105.59952 -95.42528 -82.64707 -56.88564 -45.48891 -51.63899 -79.18830 -112.69337 -122.52581 -105.69342 -74.39332 -22.02840 3.12031 17.70364 37.67394 52.44527 67.04271 70.38061 66.90069 54.71821 52.36084 54.31199 47.09916 10.80936 8.79509 6.50798 5.26414 -1.22714 1.75455 7.76843 8.15596 23.74872 22.98794 44.52808 60.96021 84.43494 105.05903 128.42951 141.16505 142.01921 122.86414 113.13491 92.65047 45.24957 22.12776 10.95275 -8.88889 -11.25117 -31.87323 -46.75913 -48.02378 -53.23308 -61.60394 -61.46419 -62.73101 -71.71260 -64.45824 -64.59967 -64.96819 -66.41440 -65.54804 -49.85494 -37.17340 -6.33870 9.66896 22.67199 37.64474 35.43368 5.90936 -21.33887 -20.67090 -44.28016 -52.85406 -55.79075 -65.08697 -69.77060 -69.37736 -92.16620 -85.07931 -75.50689 -69.55865 -48.66414 -47.94163 -67.56487 -78.00487 -63.26737 -50.45378 -53.41492 -54.22324 -44.54093 -25.60617 -52.09887 -65.09254 -81.75760 -82.18161 -90.08772 -83.78824 -93.30126 -105.19172 -102.47113 -81.04635 -69.59845 -53.54496 -45.20206 -59.76988 -69.31493 -81.78532 -71.49012 -84.92321 -77.19413 -89.71301 -99.68166 -91.15019 -82.78545 -69.01204 -83.79824 -98.75998 -91.13865 -84.13857 -66.60953 -44.83477 -32.10356 -25.16784 -13.11747 -7.50318 -8.29781 -19.15808 -34.61110 -48.42404 -50.84762 -56.60467 -72.34008 -88.03940 -113.04229 -118.45598 -136.99497 -142.53129 -139.73087 -139.75809 -130.24927 -128.43373 -149.05033 -159.78209 -161.88165 -166.13169 -155.45768 -165.14535 -172.82574 -171.13305 -164.81941 -152.33983 -144.86355 -138.46683 -144.78488 -146.98196 -146.97206 -116.60236 -101.28078 -90.32464 -95.03551 -96.53519 -114.75400 -138.44367 -146.36970 -142.27394 -136.21896 -126.38819 -132.40858 -148.04030 -154.74511 -160.23220 -169.39774 -168.90442 -168.10964 -170.19500 -154.37154 -138.61366 -130.65438 -107.59630 -101.54698 -100.41051 -106.75206 -117.50959 -113.08888 -121.86969 -143.87935 -141.29774 -144.90944 -118.28480 -93.90790 -83.19294 -79.89091 -74.94423 -74.67445 -69.27885 -71.88424 -69.35070 -59.99677
-174.92297 -169.23543 -165.46727 -167.69362 -165.76229 -169.71205 -171.03013 -166.52688 -169.16649 -160.44687 -155.81454 -155.88243 -156.06702 -151.34343 -137.96627 -132.25043 -132.85010 -134.60675 -127.19060 -124.04152 -114.04417 -97.43805 -97.19987 -108.91778 -119.54587 -143.09182 -152.16517 -146.14974 -130.38337 -124.71458 -130.75601 -139.31924 -148.43368 -153.60676 -145.97818 -123.99209 -123.94321 -113.80691 -110.51120 -99.27531 -97.66992 -83.00779 -67.01892 -63.11501 -53.90001 -59.82269 -67.08828 -83.91314 -92.62465 -110.15447 -109.46345 -109.95969 -103.50792 -80.46029 -71.30780 -69.84813 -70.79925 -78.88021 -82.06634 -106.66986 -131.53044 -152.69479 -167.38872 -170.67250 -173.15283 -160.13461 -146.67931 -145.54362 -137.59862 -135.45940 -134.31498 -98.40493 -105.67902 -110.15493 -124.52517 -132.31974 -157.18784 -156.91838 -147.14779 -150.22079 -138.36109 -122.34718 -77.89394 -89.01558 -78.37612 -92.03365 -58.33090 -37.17533 -32.47686 -66.12891 -95.41254 -111.44107 -128.51586 -111.62624 -71.99552 -37.03900 1.95727 0.00580 26.86608 38.65308 52.77149 59.04155 57.51003 38.52810 38.04878 43.06578 26.90771 21.76684 4.21220 3.74627 9.95003 9.04689 10.41354 2.93925 13.07262 20.92871 41.72785 48.93443 60.50224 89.23184 99.83712 114.86414 130.50220 115.22023 114.06598 104.89414 89.82941 52.51525 22.99874 13.88607 -2.97403 -24.29956 -26.41876 -34.29851 -42.05811 -56.42192 -67.09877 -64.58031 -70.77246 -63.53611 -60.72916 -63.80699 -57.31078 -54.62406 -55.10084 -53.25092 -37.73517 -17.82254 9.12158 37.40112 34.81428 37.98347 2.08680 -21.32120 -26.57536 -31.86855 -39.12100 -44.65918 -49.32983 -63.71237 -75.18889 -87.66747 -81.44999 -66.35800 -51.93413 -46.38521 -52.31589 -58.87930 -74.50090 -61.18857 -47.67479 -42.84793 -32.17757 -24.96533 -23.13776 -39.50105 -60.78646 -78.13757 -68.76656 -63.54633 -75.32488 -85.73018 -107.18716 -88.90153 -76.94555 -53.97317 -49.52727 -50.60243 -58.81055 -64.63392 -65.00363 -64.39432 -66.36524 -83.27899 -84.77996 -83.38713 -78.88833 -60.56587 -63.23126 -63.75682 -82.40096 -91.76704 -91.29129 -71.03895 -49.58617 -38.10879 -23.47006 -13.08137 -1.60632 -6.48228 -14.61585 -38.78476 -41.47025 -43.57184 -67.67967 -73.46071 -91.61979 -102.95597 -127.59494 -138.29891 -126.18902 -129.86425 -122.92655 -116.89521 -121.64005 -130.04602 -143.55176 -150.78898 -157.79729 -161.59866 -166.24153 -171.87407 -170.89461 -171.97809 -155.58772 -135.04677 -133.66926 -135.56429 -140.93007 -135.69903 -110.21685 -102.19216 -86.99517 -94.50307 -98.89971 -118.19237 -130.70808 -135.35026 -133.17365 -112.74748 -114.10062 -135.90670 -137.37518 -148.84790 -161.09221 -153.32028 -156.76527 -159.24579 -169.35300 -165.99007 -148.30485 -127.73452 -103.74525 -99.43945 -101.58198 -120.99819 -127.33873 -138.73838 -136.62256 -148.52992 -148.19549 -137.86397 -113.55909 -111.70807 -90.55987 -91.63510 -90.79482 -83.38672 -74.53003 -77.19122 -77.92193 -71.78774
-169.53216 -172.90276 -164.41794 -162.81637 -158.85919 -169.18828 -167.22521 -170.55420 -169.26741 -160.26063 -149.00515 -140.40137 -148.32508 -139.42911 -135.24367 -129.17933 -121.76447 -134.31078 -122.69595 -114.14256 -104.63852 -97.67439 -98.42637 -107.56078 -110.78383 -128.74639 -150.52592 -144.41754 -126.71264 -119.45339 -121.76800 -137.39376 -148.06326 -147.83310 -136.55205 -124.06251 -104.55621 -95.37889 -98.11793 -86.14695 -81.71439 -66.90423 -61.60283 -52.05763 -55.26599 -65.97245 -74.34390 -98.88639 -100.40159 -107.28955 -105.90706 -104.56228 -98.07654 -78.00985 -72.15056 -69.43165 -70.09739 -76.69144 -83.83635 -111.57613 -139.65292 -159.26305 -171.93879 -173.72085 -161.32009 -150.09457 -137.11811 -138.90677 -143.34972 -128.08006 -109.45666 -95.07050 -91.15657 -99.63715 -102.57802 -120.81210 -141.19394 -133.43908 -115.02608 -112.29756 -125.21340 -127.89323 -93.25924 -75.91444 -47.21771 -50.40271 -11.41562 -13.72832 -27.98801 -67.68241 -102.86010 -118.96821 -121.67757 -112.91842 -78.23239 -50.59901 -22.95284 -14.25285 14.06357 42.75132 44.03163 42.32356 39.90723 31.49961 29.27318 34.42193 29.15208 11.85493 8.11870 9.98127 18.02405 23.21835 7.52925 7.44114 26.85863 33.26100 42.28349 64.73664 71.89553 79.30564 89.14692 104.55805 115.54832 113.57319 89.40687 84.30338 89.85932 43.50424 22.99680 14.23782 9.56332 -18.19842 -19.50512 -18.58157 -47.02980 -61.02614 -55.68358 -57.45642 -56.30119 -54.93624 -50.45202 -49.90486 -47.06577 -42.61134 -50.67485 -40.24916 -33.24095 -17.39215 7.42242 24.51316 37.28668 31.55648 11.92198 -16.27116 -26.05898 -27.50014 -32.82831 -33.87072 -47.25341 -63.38587 -76.60849 -87.74320 -68.92056 -51.49238 -44.04222 -30.58778 -30.53523 -45.32908 -62.67117 -62.04532 -47.93493 -38.89496 -24.25959 -6.21220 -4.80263 -6.29412 -43.82095 -48.43247 -50.13135 -52.80680 -55.07444 -78.68071 -93.77816 -87.07750 -68.20764 -49.21111 -43.14988 -45.27335 -46.90015 -62.11518 -53.05648 -51.17916 -60.94935 -73.40850 -86.60968 -75.24196 -54.72204 -48.00087 -52.90812 -64.27826 -76.69334 -81.69918 -86.31559 -68.35397 -46.07309 -42.61185 -20.84592 -6.48792 6.61222 -3.68674 -9.68249 -37.20725 -32.21029 -31.08961 -32.85100 -65.29505 -76.99428 -94.37488 -120.16682 -118.69497 -107.03287 -107.86548 -102.85796 -103.93560 -112.41625 -114.50815 -137.33849 -152.53212 -161.73934 -169.11129 -175.07447 -167.52305 -165.26168 -169.19226 -158.81396 -136.23364 -129.10031 -126.01329 -136.22459 -142.56683 -112.28123 -89.38273 -85.70732 -86.62230 -100.42132 -109.90021 -120.45769 -129.83537 -115.74322 -102.45753 -112.03032 -119.89322 -131.98929 -140.83100 -149.92094 -151.27221 -152.89721 -158.30242 -163.84779 -160.81589 -159.16707 -134.58595 -110.52992 -111.80022 -121.62050 -119.57224 -147.66871 -143.78747 -153.33566 -150.48029 -157.10943 -137.04927 -124.08335 -104.31086 -99.38362 -108.86465 -108.02160 -95.13256 -91.97491 -84.43983 -81.96082 -68.98188
-173.66786 -169.51034 -166.59878 -160.09277 -165.29165 -168.53252 -170.10522 -163.47336 -162.00911 -161.85059 -151.95022 -142.34844 -133.99823 -127.57878 -127.25733 -112.76418 -119.40822 -130.46515 -120.22074 -115.46656 -102.26728 -97.43634 -94.88171 -100.96106 -104.72325 -117.04765 -139.35962 -144.69212 -128.94303 -119.75076 -120.18237 -133.78611 -152.03052 -150.68078 -127.45696 -110.45701 -107.50746 -95.12947 -92.35918 -81.57728 -74.40050 -63.00499 -58.17404 -50.06929 -59.70395 -67.08136 -81.20006 -94.46765 -103.72552 -102.04031 -98.44291 -95.19088 -85.22955 -80.70775 -77.85632 -69.90616 -75.53765 -82.46381 -97.93317 -125.26192 -141.45471 -158.91667 -168.80997 -179.47318 -169.59681 -158.21587 -149.74180 -142.38980 -134.50690 -127.99522 -99.32229 -94.06829 -90.40109 -91.40639 -88.94845 -100.81406 -107.91286 -116.54402 -96.64104 -86.95239 -106.16739 -126.19208 -104.72345 -68.22229 -41.28557 -18.82852 -6.64183 -12.26706 -30.61233 -78.18064 -88.32608 -84.11537 -62.91158 -55.78952 -43.79920 -42.04395 -24.07710 -9.32102 24.47914 36.21782 36.55672 35.55670 26.09781 28.88559 13.77793 13.08095 14.00417 5.63209 8.01233 17.33915 26.75372 24.96129 14.20303 21.88518 29.68004 49.58267 47.36975 67.97484 87.02026 81.51382 78.30726 80.18015 80.02442 83.51954 73.43481 46.70787 38.71788 29.58885 35.44064 34.89007 4.54588 -10.21180 -25.25940 -36.91665 -52.36228 -52.40989 -39.70015 -23.50423 -25.95068 -33.95856 -44.86383 -43.17838 -40.11955 -39.48416 -32.25804 -28.78509 -29.22676 -16.05510 16.62438 45.09231 46.51917 37.42561 29.05619 12.97561 -5.71663 -14.64846 -23.85013 -31.41189 -49.40906 -60.16308 -79.44860 -76.08662 -65.29927 -46.24074 -38.61014 -31.26527 -23.78554 -44.19063 -60.73937 -52.09965 -43.72178 -29.70467 -7.62766 6.78527 3.24046 4.19423 -8.84869 -13.38346 -32.92166 -55.20054 -70.81729 -74.11432 -85.43569 -82.94515 -64.45452 -37.64110 -27.09182 -29.33112 -26.40155 -40.52763 -45.67761 -47.67252 -66.82837 -72.89654 -69.05399 -57.91000 -46.96651 -44.02368 -46.40524 -63.47104 -80.17031 -82.39185 -79.33275 -52.22448 -45.88999 -40.86923 -29.53484 12.97112 19.19612 8.89347 -7.44089 -24.15414 -18.08828 -26.72588 -37.02447 -56.96191 -65.03055 -97.67632 -113.78608 -109.83857 -104.43541 -100.68557 -103.53741 -99.55044 -118.17117 -125.95415 -140.42168 -149.10446 -168.61713 -173.75464 -170.18375 -169.02366 -164.87915 -161.07904 -159.38933 -146.96575 -133.91018 -124.34705 -126.61036 -129.70251 -117.45859 -96.46785 -85.12283 -74.75718 -76.43052 -111.85340 -110.13547 -110.82729 -102.50199 -95.21192 -99.13436 -114.89880 -111.86587 -119.36354 -138.60336 -144.50415 -150.54543 -158.28579 -173.92104 -159.69895 -140.75962 -126.67002 -119.33689 -121.39343 -134.75892 -147.41057 -156.51867 -156.69920 -160.54426 -156.36502 -152.97371 -140.34394 -132.48501 -128.25269 -121.46609 -120.44170 -106.48052 -98.38241 -82.29468 -77.01015 -68.49652 -54.59290
-166.68346 -169.64915 -170.74842 -161.13607 -164.86358 -173.75036 -166.02080 -159.00431 -155.74557 -161.76538 -144.48377 -140.13515 -130.02044 -123.86213 -114.58735 -114.87190 -114.77783 -121.46819 -122.17770 -122.95663 -102.68986 -102.79064 -99.55781 -96.97843 -98.99803 -103.14506 -123.42931 -142.83146 -132.15490 -122.56309 -118.63593 -138.14803 -148.01059 -143.55371 -122.55148 -113.33101 -111.67712 -98.58640 -89.38793 -70.94980 -65.54444 -58.80709 -47.59766 -48.58685 -59.44695 -80.09865 -78.70329 -88.84174 -93.27326 -95.63473 -83.02530 -78.90420 -67.65609 -70.90337 -69.01245 -69.63499 -84.16306 -94.37379 -106.22972 -125.08351 -122.35363 -139.07344 -168.46078 -165.51678 -166.22206 -170.95663 -156.93123 -158.39206 -144.34208 -119.34303 -101.79355 -86.13974 -92.78735 -78.64117 -75.83383 -67.98554 -85.74892 -90.45045 -84.95748 -73.18936 -96.87970 -114.94648 -94.45183 -77.38942 -42.02332 -18.20844 11.33962 6.14456 -24.47335 -66.14495 -102.33929 -67.14291 -21.15939 7.65039 4.13383 -0.39014 10.11654 21.56899 24.96819 52.21428 44.30003 35.71731 37.39203 35.26648 20.86366 15.24799 8.91088 15.22851 9.64467 27.33708 43.47100 34.57700 24.10835 16.98839 35.54152 48.00229 67.08515 84.24492 90.70074 87.74925 65.56164 61.50076 55.19744 23.88954 22.19400 16.74696 13.36151 29.54016 33.56819 19.55244 -1.53709 -19.20472 -29.09604 -51.70619 -59.72697 -43.27052 -22.84125 -11.46765 -8.60093 -12.51599 -29.05361 -30.36320 -28.86080 -26.91827 -19.97987 -10.70373 -2.83734 4.96207 32.78248 49.14339 56.56313 53.06842 33.33534 16.43186 -3.48682 -4.71237 -11.79583 -31.57829 -51.31556 -67.22937 -74.60944 -83.80864 -63.40486 -42.69291 -33.83629 -24.51638 -23.33139 -26.16086 -49.64596 -52.24555 -25.26065 -12.76901 -2.86042 11.21674 15.51228 10.41129 4.28002 -6.20813 -10.47159 -47.58149 -65.93184 -63.01734 -83.84670 -79.18688 -56.35295 -37.09990 -20.88751 -11.01900 -16.18125 -21.81274 -34.17169 -45.30354 -57.82137 -60.69416 -72.34224 -64.77990 -49.10062 -42.61178 -45.97736 -54.40749 -66.76168 -78.27750 -64.51557 -38.04931 -33.53588 -15.60574 3.46010 18.27745 28.71601 15.91963 -3.53265 -8.55570 -11.84978 -23.92262 -45.96914 -52.35364 -76.62030 -99.92716 -95.68812 -102.39829 -103.32166 -106.00460 -108.21130 -107.40704 -123.57217 -139.40357 -152.41708 -161.03996 -170.08596 -171.02861 -168.32140 -156.96277 -159.62357 -149.26159 -148.52628 -151.77107 -140.00300 -121.81213 -107.40425 -119.67194 -102.84531 -90.09437 -77.83960 -77.08993 -79.35306 -89.29266 -101.60725 -104.11987 -89.84103 -85.98157 -89.00189 -99.88616 -109.55540 -107.69823 -127.63264 -129.73199 -148.79899 -165.49930 -167.20445 -161.38513 -145.65768 -143.25717 -133.99821 -142.52959 -150.27349 -152.26264 -157.24546 -152.75750 -156.98348 -130.77390 -130.86203 -137.80077 -143.68103 -138.67609 -125.50944 -115.11522 -103.11480 -94.59753 -80.19811 -70.44235 -60.34961 -55.04933
-162.76235 -174.52482 -163.99923 -164.66651 -165.37162 -161.28929 -165.03466 -157.69072 -145.99829 -151.22939 -144.84388 -138.90211 -132.93445 -124.35036 -119.34107 -107.20624 -105.26194 -116.43302 -118.81017 -118.87201 -102.69548 -95.99719 -95.15254 -92.88134 -100.54082 -102.10282 -117.33638 -130.98569 -134.64328 -121.37624 -114.12661 -118.24644 -139.31264 -138.95938 -123.49022 -123.13883 -109.90398 -103.06491 -94.35319 -77.71601 -72.60615 -57.69991 -47.22535 -52.53785 -60.72898 -72.08992 -78.05565 -75.74094 -85.83327 -86.57064 -83.49000 -64.36968 -59.00216 -58.99176 -62.45229 -77.54019 -91.54694 -91.92641 -102.72506 -120.17201 -123.75738 -147.89267 -151.88848 -155.94114 -156.93435 -158.32194 -162.14834 -161.76805 -147.65795 -122.66280 -112.08409 -96.57236 -104.91581 -89.21599 -77.82045 -64.27657 -57.20326 -68.65088 -67.52264 -73.33791 -78.30168 -100.49296 -67.26466 -56.47696 -47.40504 -9.81846 24.52383 19.34661 -20.86926 -82.66144 -86.85069 -64.44664 -7.02145 19.16556 42.04724 49.04802 61.13655 44.63514 63.75016 52.95843 49.55487 39.34291 42.12422 39.27415 27.45036 18.44802 18.55417 20.66808 21.05519 49.10628 58.08635 52.97287 34.13163 19.78861 25.85670 47.31160 62.93522 76.99851 86.44216 88.38904 57.81194 40.39710 2.69010 1.13395 -0.01656 -4.27376 14.44552 19.34764 12.67444 2.87044 -15.98290 -28.08892 -38.56737 -55.15178 -50.04173 -38.14658 -23.34423 -5.78844 0.85706 -7.69120 -17.28024 -21.39709 -22.04459 -15.29891 -5.77025 -8.53966 4.07623 12.22273 39.14854 51.37291 54.40001 42.73893 22.60817 11.31424 -3.04882 -6.12827 -17.83569 -39.02089 -64.87879 -73.50617 -73.07999 -72.63098 -66.76950 -43.38432 -34.48724 -17.66805 -14.45734 -20.76494 -41.12598 -42.21577 -26.17209 -4.45189 -4.99190 0.35066 21.89790 19.60673 16.92252 12.76594 -3.60576 -34.56266 -56.71894 -62.74575 -78.92417 -74.80084 -55.13191 -32.22739 -15.93359 -6.01385 -4.78224 -4.94026 -23.38244 -40.22640 -43.76709 -45.35741 -54.81647 -57.10491 -45.22560 -33.17976 -29.33553 -34.44751 -56.60436 -61.05847 -67.36202 -41.93874 -25.69494 -13.79574 -11.16855 0.77941 11.61841 14.55762 9.78021 -12.15605 -18.27875 -33.18303 -60.41017 -77.22362 -103.06402 -105.84534 -124.42013 -126.04094 -116.96047 -110.51087 -119.40294 -117.14704 -128.34208 -144.85624 -155.69335 -165.91846 -169.90576 -172.18091 -167.58812 -164.41670 -157.97491 -147.88546 -141.63600 -147.73275 -143.99328 -119.37240 -108.56337 -111.65556 -100.11236 -84.07684 -72.09999 -61.71185 -66.87002 -82.28473 -81.67831 -82.37698 -85.84056 -89.01250 -97.74420 -102.82867 -116.33811 -111.90244 -121.64252 -137.27510 -153.31127 -162.43506 -174.85245 -167.77488 -155.90558 -152.13182 -145.41149 -163.03503 -160.91977 -155.87173 -149.58468 -149.43182 -131.32491 -125.68085 -114.99366 -129.21594 -128.87075 -122.79912 -110.75741 -105.06397 -96.58862 -86.44039 -78.82505 -62.19770 -53.52704 -52.99360
-168.98932 -171.01931 -165.41371 -157.60305 -160.43425 -152.33229 -162.07739 -161.80867 -161.63172 -149.73256 -140.68295 -133.40600 -132.40870 -117.75101 -111.20382 -104.14057 -98.46010 -102.44245 -110.87883 -109.59349 -103.93337 -97.53514 -88.37850 -83.07272 -86.45927 -98.00769 -102.91154 -122.29999 -132.87860 -122.17108 -121.55235 -120.84743 -132.19048 -140.29437 -136.15929 -123.21087 -111.59627 -103.10078 -98.06281 -82.54896 -69.05376 -55.85410 -51.26602 -47.95803 -53.23635 -64.84124 -70.14258 -73.48487 -74.00226 -76.76974 -72.35182 -49.72314 -54.73785 -59.30932 -62.81679 -68.36571 -90.03251 -94.91142 -116.26846 -131.90954 -151.64223 -160.53291 -172.72058 -154.62308 -149.17821 -149.52718 -154.90737 -158.10281 -139.28790 -136.34820 -124.78748 -114.60493 -105.32260 -90.23673 -83.10104 -68.87801 -49.77478 -42.94610 -54.02170 -52.86704 -75.83491 -89.81417 -67.69049 -36.26640 -25.21331 7.56945 28.80191 15.00432 -17.52802 -61.06289 -46.20728 -51.72331 -7.74104 46.79389 61.36521 78.51158 77.63558 83.74247 62.61575 53.71644 52.36728 43.70299 46.60214 34.85801 34.13379 15.72757 23.45673 29.37826 38.87842 58.42112 77.46850 64.45101 47.65931 40.01312 18.50153 28.24205 56.53657 78.22381 75.23322 81.22501 61.22563 54.60816 32.93948 9.72973 -3.20162 -11.57074 -7.73842 3.85186 2.35204 -16.53982 -25.91667 -38.81174 -46.35763 -51.11033 -41.76242 -42.56516 -18.57503 -5.09592 -1.40572 4.20305 -4.36562 -13.99947 -9.91059 -10.37070 15.45942 7.15607 8.18736 44.41732 50.60932 55.24660 47.60244 28.82505 12.02698 -12.06495 -9.83813 -29.01910 -34.03012 -45.91242 -69.07615 -67.06471 -73.66095 -68.15133 -60.35110 -50.67815 -32.25128 -12.63714 -5.61835 -3.21006 -22.77320 -24.78033 -17.20213 -12.03506 -9.82873 -1.80447 15.66047 38.37536 22.49399 18.67054 -0.73809 -12.39722 -45.69547 -65.94073 -74.85955 -65.70085 -56.88325 -36.90337 -22.96373 -2.98392 -0.62527 -2.08568 -24.03038 -36.39047 -30.09284 -29.56531 -35.70447 -42.95742 -34.91747 -25.50353 -20.11719 -24.58795 -20.01691 -42.86219 -44.78748 -54.22606 -40.80349 -27.30024 -13.91315 -4.55030 10.37977 15.07107 17.16431 -9.13213 -35.25614 -47.50433 -64.21804 -93.82664 -105.33373 -109.24529 -133.66998 -141.56317 -142.21465 -133.71061 -125.99102 -128.68920 -140.54683 -150.80517 -162.70624 -161.28948 -166.82403 -166.92746 -175.99093 -169.16256 -168.11017 -155.81472 -147.61986 -138.80529 -125.81883 -118.87187 -103.75028 -91.98219 -84.89889 -75.95876 -59.10368 -50.23339 -51.85254 -57.80614 -69.61806 -72.85170 -87.08046 -91.80048 -103.60539 -129.51920 -127.12480 -122.91756 -138.44177 -137.87127 -161.02524 -165.25389 -159.43950 -161.32092 -165.53592 -162.24502 -154.38848 -146.56101 -145.14008 -146.55627 -137.44399 -134.15819 -121.60277 -103.17989 -102.47367 -112.53112 -115.65502 -112.16555 -107.56609 -100.87922 -89.88289 -75.96633 -68.89199 -58.02711 -59.32628 -50.92241
-171.65400 -171.16849 -166.23244 -163.87794 -151.27268 -147.32006 -154.61529 -161.72267 -168.37409 -155.64299 -138.24009 -129.50099 -121.53549 -111.87793 -109.03666 -95.71036 -97.19244 -98.71681 -101.29551 -103.88116 -94.24193 -97.76026 -83.79722 -80.40926 -85.57947 -89.30322 -93.49045 -113.98933 -126.27683 -127.31730 -119.05092 -119.44198 -124.91418 -131.43917 -133.81719 -131.74861 -120.00852 -106.55367 -95.80419 -75.86519 -63.92878 -55.92604 -45.27666 -43.63942 -50.59377 -53.84790 -63.87161 -65.63856 -70.08607 -74.58759 -74.06913 -59.68722 -56.38508 -59.85760 -65.83464 -74.52292 -94.13047 -111.28911 -137.46050 -148.15455 -171.02553 -172.41097 -166.38750 -164.21485 -155.62690 -149.09097 -147.01417 -140.06147 -126.20003 -117.23174 -123.21559 -107.53182 -103.83943 -89.41288 -79.29484 -57.59654 -41.03113 -26.48297 -28.12148 -46.12717 -67.66048 -78.37576 -48.47216 -12.20325 6.93313 26.89104 27.02999 27.56426 -3.80619 -21.95305 -30.56501 -8.85780 -5.70324 44.00261 79.72725 100.51030 98.33510 93.53113 79.57645 71.69008 70.84096 58.65462 57.34703 57.65434 46.24638 24.75368 26.20348 24.01714 47.74563 81.11504 83.95521 89.00000 62.41410 49.87266 28.32487 31.13178 55.61689 66.84806 75.35173 75.44791 79.08587 54.02727 38.46659 24.46810 3.71911 -11.45408 -26.24402 -20.03008 -21.13318 -18.27833 -39.91039 -38.95039 -46.81362 -45.03188 -38.87042 -33.88815 -19.89371 -3.61907 -4.76372 15.99168 7.74645 19.12153 40.02475 49.81903 37.38971 39.93737 40.93803 60.74070 59.01161 59.78105 41.03543 23.34842 -6.39112 -9.84965 -18.28132 -31.23198 -44.56323 -50.86997 -68.08856 -68.53698 -59.28083 -51.97868 -47.45639 -39.00866 -13.76906 -0.05559 4.89493 4.86551 -2.71525 -11.05720 -13.66151 -22.71306 -23.09763 -18.76397 12.36928 17.94349 22.10414 19.27705 7.75503 -12.17004 -38.05064 -49.78715 -66.37798 -54.37633 -47.73795 -32.93463 -20.06614 -7.88638 -2.08925 -8.26511 -9.59672 -20.34884 -28.21938 -28.05237 -21.93790 -26.21054 -29.13460 -16.63692 -9.27988 -9.40804 -4.22947 -8.98638 -49.39382 -46.78902 -41.92998 -25.27113 -14.10680 2.52694 10.38857 14.39411 17.25447 -12.20584 -36.62498 -55.44425 -88.99231 -112.71502 -114.93201 -125.63188 -149.28066 -160.90952 -158.86392 -154.54388 -141.65567 -142.19720 -148.40799 -161.43152 -159.73479 -166.19948 -163.37166 -170.22571 -172.52327 -171.21726 -166.70991 -162.19862 -159.19418 -143.05660 -132.65701 -123.50579 -103.58674 -88.29606 -73.19102 -59.01878 -49.01048 -48.61811 -47.06669 -59.08924 -67.24745 -74.23722 -82.52677 -100.56600 -114.08458 -132.18343 -149.78892 -152.06804 -160.59041 -160.83322 -168.89824 -157.76681 -148.23425 -149.42848 -160.81261 -159.49810 -139.04676 -130.96479 -141.19041 -130.26740 -125.45884 -116.76865 -105.16535 -83.17775 -92.16779 -99.40475 -103.49500 -108.91166 -94.44881 -93.23234 -69.93335 -58.85879 -62.27032 -57.07294 -58.56889 -46.74385
-162.94654 -167.37339 -170.76060 -165.02634 -154.04020 -146.43121 -151.45743 -162.52698 -166.05870 -155.02349 -135.60742 -124.25236 -115.86851 -107.85650 -110.78315 -104.19607 -93.48506 -98.01175 -90.23166 -95.47313 -92.82174 -86.74481 -80.43219 -75.53893 -73.83441 -82.27641 -87.06139 -90.24236 -115.13671 -115.61224 -112.01236 -103.25083 -116.33661 -115.81072 -122.92886 -131.03184 -120.38477 -101.12047 -91.97151 -77.67052 -60.98420 -53.37622 -45.82715 -37.00924 -43.55778 -53.53219 -56.64567 -52.44872 -64.81533 -69.14360 -71.13236 -65.22385 -66.88232 -68.23614 -83.62123 -84.33300 -113.94196 -130.33777 -146.05607 -155.60927 -168.93216 -170.47917 -170.10551 -164.31932 -168.41374 -160.15368 -160.93057 -140.38565 -122.54495 -112.16056 -116.71583 -92.93457 -82.17576 -75.00252 -61.81927 -31.00332 -24.36434 -10.72304 -14.64565 -21.79987 -30.59215 -42.57401 -17.55219 0.03702 26.15570 47.23980 42.18479 31.66899 -9.40331 -23.09745 1.62916 38.90343 37.01427 32.87431 80.47119 112.84925 111.96538 108.59289 101.57918 96.08875 99.12378 81.54987 80.76636 76.58520 46.12011 44.32586 34.98828 26.90046 46.42214 72.12500 91.65446 89.17994 68.45134 52.87889 44.64429 28.02474 46.50515 63.13948 67.26359 74.68646 72.28887 71.26052 44.26941 29.35759 4.38419 -7.39453 -21.00582 -32.89179 -28.94291 -31.38382 -33.00348 -36.55609 -31.75850 -38.46195 -36.08058 -28.72872 -14.09013 -4.92100 10.76532 13.18732 32.02174 31.66107 54.04566 63.09388 67.46350 63.13597 64.35755 84.92539 62.42877 55.30250 33.67289 14.00217 -13.12049 -13.84070 -33.26717 -37.23897 -42.52177 -56.83208 -59.65406 -56.08847 -48.67209 -38.68343 -34.93005 -36.15008 -3.93585 -8.64730 2.84919 5.17557 5.18952 -2.77728 -6.18440 -26.16040 -36.05978 -44.35602 -15.28160 15.64422 12.64622 13.28670 14.88507 3.37351 -8.27803 -23.28004 -25.71452 -30.45070 -29.91032 -17.36655 -7.81811 -13.39524 -29.21800 -21.33417 -21.10716 -33.74557 -34.70433 -35.20695 -20.29091 -20.90078 -15.74768 -9.07587 -7.47859 9.41517 10.26742 -0.33765 -6.97067 -32.81299 -34.28987 -27.30907 -14.12773 -4.84592 0.70210 1.70193 5.45691 -19.87108 -31.84645 -72.07862 -106.33832 -124.44461 -124.59487 -142.25850 -152.79554 -169.13535 -162.78886 -161.02996 -155.43064 -156.78421 -156.07519 -162.76986 -160.33183 -163.78675 -167.99641 -165.64475 -170.78156 -175.79147 -167.05706 -160.50694 -162.37994 -147.42572 -136.55438 -120.46395 -113.52146 -87.16476 -63.51351 -53.23947 -55.59755 -55.68488 -62.07505 -65.78712 -69.39910 -75.34695 -101.52689 -103.79408 -126.25126 -135.19863 -152.60945 -160.35908 -157.25495 -158.02737 -161.23033 -152.56953 -141.47725 -132.48708 -146.05618 -158.14750 -140.13241 -136.16364 -124.35431 -116.98676 -113.39850 -110.12489 -99.08211 -84.15285 -84.38289 -79.73727 -85.69692 -86.81904 -77.42122 -70.18603 -62.14338 -58.98315 -61.35936 -61.98901 -55.99008 -53.26395
-152.56215 -163.78530 -166.95422 -170.54502 -157.54442 -145.07767 -150.36208 -151.26127 -155.07976 -155.97212 -142.05836 -131.41610 -122.75602 -110.87923 -108.31750 -103.27858 -103.05980 -96.21261 -96.82405 -93.15644 -89.27390 -81.71202 -78.73702 -71.64661 -74.26383 -75.43350 -84.30623 -91.12581 -99.30203 -108.07699 -98.94176 -101.37081 -99.99966 -98.60667 -109.38827 -123.55401 -111.47912 -95.81790 -92.54812 -73.30984 -59.75718 -49.00433 -40.36458 -40.33980 -32.15741 -41.49399 -37.33946 -46.37734 -50.32582 -64.49288 -61.48242 -59.72921 -68.71682 -78.69142 -96.53062 -111.31167 -124.86519 -143.07178 -139.13157 -156.87377 -164.87056 -172.14391 -174.79344 -158.49521 -156.09447 -157.31297 -167.60571 -149.25663 -124.25313 -115.70441 -104.04602 -89.58666 -83.28807 -67.45739 -46.68117 -34.23946 -0.68867 -2.65827 -5.69128 5.55321 1.55088 -3.58706 -15.45673 -1.41737 13.92027 53.48759 62.36193 39.10026 9.09230 -4.07110 35.96905 57.79872 61.76367 67.18007 94.23268 122.45787 117.58536 113.59688 102.15270 117.78445 109.50208 105.98108 97.42614 76.58578 54.50451 46.67465 44.11629 32.23668 40.61292 65.64708 77.92124 91.33782 78.27897 65.40515 44.30878 36.25257 37.02659 44.85174 67.04756 91.98929 88.28623 69.42953 42.15687 26.22389 5.17465 -16.33630 -22.24376 -37.33966 -26.79914 -23.23995 -21.77862 -13.31415 -30.94565 -8.36035 -15.66592 -5.08908 -2.70745 15.72082 34.53603 37.79963 54.30660 71.12281 87.99629 90.17359 83.34565 83.61354 88.96863 85.75644 84.80632 51.94459 40.74651 11.80910 -6.00950 -25.92046 -30.62615 -38.06492 -38.33234 -40.96558 -45.50660 -48.53596 -40.77668 -23.84699 -16.08066 -12.32209 -5.08682 -1.18820 8.38400 0.39212 -3.75926 -11.11111 -17.02384 -37.44539 -45.83950 -54.23497 -45.74018 -12.54702 4.42918 5.18222 7.75003 5.33142 2.48665 8.80824 -2.91986 -2.48526 -7.59164 -2.59729 -8.95466 -13.28608 -32.99104 -44.22383 -52.15656 -45.70073 -43.41970 -54.53790 -37.79261 -17.98809 -12.56430 -3.45832 9.65244 20.56586 19.86633 11.63849 -0.61471 -10.07750 -16.18016 -14.65630 -18.02302 -17.75659 -15.64581 -34.96618 -52.28006 -68.92537 -54.71748 -69.08003 -103.77686 -121.67335 -133.64090 -148.69332 -156.17339 -162.37977 -165.76994 -163.99623 -164.52241 -155.63308 -161.16122 -163.93839 -168.91601 -167.99119 -168.75677 -167.89786 -175.32466 -170.40437 -174.16969 -168.38643 -164.24054 -156.43165 -137.36744 -126.03580 -104.23932 -89.07389 -70.31249 -60.86647 -59.73346 -68.49584 -69.29251 -80.86832 -86.36335 -98.26271 -119.43841 -140.47228 -128.38674 -142.86295 -163.36746 -160.27844 -148.64721 -143.48888 -152.44284 -146.92434 -132.29287 -135.13519 -136.78539 -158.28150 -157.06824 -121.38742 -116.33640 -116.42529 -105.77239 -103.00449 -93.21505 -83.65564 -75.95031 -74.27315 -67.44353 -67.34329 -65.99090 -60.81767 -62.05164 -60.25679 -57.99955 -61.12734 -64.58264 -62.10428
-150.73838 -159.20263 -163.42959 -164.83507 -159.27852 -145.30026 -144.92409 -143.54266 -151.54581 -152.14676 -142.40300 -129.06172 -131.48208 -132.40677 -125.97460 -111.62482 -105.40202 -106.10189 -91.70592 -91.09277 -90.21266 -82.48847 -67.09354 -65.72465 -69.57275 -69.53251 -80.60459 -98.79091 -105.62281 -99.24418 -98.67098 -90.76099 -87.67982 -91.87185 -103.91905 -116.29388 -110.55275 -94.93168 -83.22745 -73.81648 -65.88409 -51.72364 -56.53128 -39.84771 -36.36061 -30.07261 -31.43502 -34.55066 -50.28071 -51.22640 -54.52498 -56.24729 -68.77007 -83.44894 -107.06594 -115.68046 -127.22620 -141.21143 -154.43032 -163.24908 -171.08411 -168.14386 -153.68067 -146.75265 -141.61999 -145.71963 -147.62684 -159.13634 -149.13370 -123.24868 -108.75963 -94.00195 -94.01527 -86.75818 -71.45715 -50.44231 -14.39293 -12.03140 8.37384 23.05952 17.58215 6.45395 -8.32436 2.20858 23.52781 52.51452 69.31228 38.10171 17.45004 23.77912 61.93054 91.36287 92.26347 98.98522 139.06336 126.96468 108.28157 98.38848 101.27350 109.82685 107.66556 111.48878 103.76892 102.38355 73.65699 65.43824 56.18376 49.64703 57.00405 61.87375 87.20177 91.34555 82.10554 69.88220 58.23948 41.22784 40.06155 52.77332 77.34305 87.95136 83.51873 53.66388 24.14107 12.58236 -3.94896 -13.67864 -21.27979 -25.67676 -27.84743 -21.90632 -15.29135 -0.16224 2.92140 8.03230 -8.66539 -7.23196 13.42808 27.15102 44.30996 64.67318 86.56789 110.30424 125.53380 103.66632 83.57854 91.35493 85.21094 98.58574 83.41334 56.53783 39.48225 7.05944 -17.75523 -26.89114 -30.78092 -42.78960 -40.36579 -29.77951 -45.74101 -45.02658 -29.46905 -13.02531 7.82145 7.38996 22.72039 19.28830 12.14607 -4.70441 -8.21415 -36.34045 -36.44975 -70.97897 -73.88232 -68.64392 -52.27559 -34.91678 -23.71153 -15.34503 -5.04228 -3.34638 1.28395 11.27395 12.55589 10.76295 -0.58809 4.60976 -8.38151 -28.27959 -39.95407 -61.66540 -72.65279 -73.14187 -72.42604 -61.87772 -62.84566 -44.00589 -10.80377 -0.19434 3.81165 10.96230 19.26833 16.59587 8.41475 -0.55521 -12.55440 -7.75191 -17.38384 -22.76275 -38.11487 -61.49508 -74.73548 -70.12815 -78.34436 -73.79587 -80.72030 -99.11746 -123.72803 -146.61581 -164.57660 -153.90517 -146.15219 -158.86577 -156.42256 -165.72870 -168.33125 -167.97803 -173.23045 -169.98974 -170.79783 -171.41999 -173.55010 -169.05972 -171.43588 -167.28152 -163.77797 -154.32917 -124.35058 -122.72226 -98.57662 -79.77715 -69.28777 -67.73992 -69.83744 -78.83913 -87.14685 -85.64563 -94.57049 -113.21549 -130.75003 -135.78280 -137.54313 -150.29055 -163.04037 -157.89137 -130.09531 -129.00771 -141.32351 -148.76469 -139.26803 -131.84303 -132.28049 -151.10698 -142.72921 -129.15444 -105.83009 -103.83171 -95.73252 -97.83718 -82.38708 -73.74910 -69.77172 -61.53932 -58.44382 -55.17441 -57.82185 -59.97375 -63.89730 -61.95044 -63.89573 -70.21281 -70.88404 -67.43352
-149.44706 -157.88788 -158.04635 -166.31806 -157.08492 -149.29544 -142.13388 -144.44504 -156.57425 -164.17519 -155.03351 -147.29954 -147.88345 -144.32930 -133.68655 -135.94408 -116.24630 -104.48850 -98.25675 -97.05271 -88.30160 -75.54243 -74.27839 -67.50564 -67.66067 -75.58388 -90.52901 -97.78793 -107.13881 -103.36716 -92.73128 -89.98075 -88.61511 -88.99380 -103.54851 -115.69711 -110.29196 -108.60921 -89.03809 -79.63153 -73.08706 -68.05254 -57.00457 -44.98931 -34.82298 -30.08597 -21.28539 -29.99517 -35.09767 -46.57281 -54.58421 -64.98736 -79.98433 -89.49829 -115.11524 -125.80791 -143.86912 -150.70580 -162.62458 -170.28244 -167.41011 -165.36868 -156.84688 -127.10846 -114.38203 -113.65430 -130.06280 -149.55131 -145.71797 -145.44046 -134.54734 -115.81550 -120.67905 -116.52455 -89.98465 -81.10376 -59.92803 -38.13470 -1.70589 20.97711 38.33940 44.43094 32.03526 31.77753 53.50645 50.07332 55.77410 48.24594 38.02270 42.07445 73.69240 104.68468 106.82446 129.31291 124.64442 112.78977 98.13604 80.13037 89.87181 92.96301 100.09869 108.89680 102.70485 104.29648 88.57937 79.01352 75.37653 52.29233 56.71580 62.82774 89.49021 101.90255 95.49756 81.90926 70.30561 57.13877 51.68699 58.12441 66.18629 90.75526 92.30877 40.42481 19.39991 -1.16891 -8.13842 -16.96623 -25.25617 -24.98398 -22.16695 -13.34063 1.69667 3.66848 31.03135 22.38838 6.36935 3.78271 20.53819 50.39630 67.04190 105.05818 110.35220 123.68223 116.20511 99.71941 86.90545 67.23321 76.79622 91.89917 79.71282 60.04069 28.26831 4.00656 -1.00635 -11.17859 -23.50971 -26.17925 -22.90758 -17.15029 -28.71381 -38.21098 -26.43681 -11.74474 10.33586 34.77437 42.06157 35.29330 8.16865 -12.80557 -22.70557 -36.21523 -62.03476 -72.41117 -74.51884 -72.77517 -75.25218 -66.97174 -44.41643 -35.12591 -19.87331 -10.43860 -3.76674 10.20754 15.44895 4.05108 -0.64266 -9.55440 -16.16050 -44.80783 -57.82710 -71.33650 -100.17289 -95.35318 -94.15132 -90.64730 -84.70856 -51.01080 -26.16811 -23.07812 -13.74836 2.13545 13.64411 7.41747 2.32941 8.16290 5.99053 1.38341 -15.88540 -18.97638 -49.25695 -74.42457 -87.24588 -102.56932 -100.61171 -101.22110 -84.90601 -97.53070 -103.98146 -127.22919 -138.24340 -135.57577 -132.68463 -139.36468 -159.29981 -167.57948 -169.39231 -167.07991 -171.65389 -166.47800 -164.36554 -165.10503 -171.81636 -171.70180 -175.41104 -170.07395 -164.08138 -157.27995 -127.00255 -105.87630 -88.89218 -86.35078 -70.54248 -68.49527 -76.42658 -90.44507 -98.25813 -92.90651 -99.59719 -104.28071 -139.49699 -144.24207 -155.94475 -165.50519 -168.26296 -150.46636 -144.35514 -135.71031 -145.04451 -142.79631 -131.40155 -125.83934 -130.64834 -141.14136 -161.66249 -144.57325 -122.92181 -105.35604 -103.85215 -101.46337 -94.19505 -76.53891 -63.71520 -62.02530 -58.80225 -54.74618 -49.70744 -57.01834 -67.17771 -70.66396 -78.75037 -82.69511 -87.25425 -80.08163
-149.75979 -162.32120 -167.77566 -164.20960 -157.85373 -139.02986 -142.18988 -140.35697 -143.94124 -156.81522 -153.05749 -155.25981 -148.77157 -144.15721 -139.35034 -132.64363 -128.54334 -116.92186 -116.01144 -101.93904 -101.63412 -89.02446 -72.48133 -70.63228 -66.80713 -78.54769 -89.55529 -98.15826 -96.47683 -99.56480 -100.86888 -88.84238 -79.30712 -81.35829 -103.13130 -122.01651 -115.52462 -111.70469 -92.84708 -87.63417 -82.58072 -81.80407 -62.91424 -55.66603 -37.72528 -26.67516 -19.68968 -23.19831 -30.08058 -44.39277 -52.01514 -72.69602 -76.56905 -101.18839 -116.52099 -141.54731 -151.28989 -155.82465 -155.94112 -170.25488 -166.02371 -156.20058 -143.10514 -130.68050 -105.78184 -116.79999 -108.33516 -123.97411 -129.63449 -136.11269 -140.34156 -131.37292 -117.57195 -109.42085 -93.55478 -86.69904 -68.73425 -49.58489 -25.53906 20.19484 52.74355 73.63603 76.89845 82.91520 88.18456 81.32466 78.45698 60.91293 88.82072 100.37804 100.73045 97.34233 104.22408 120.66090 122.76933 109.30614 65.45824 63.83494 64.67453 81.46953 81.32111 92.43186 98.43894 97.55084 89.81140 89.33945 89.99588 82.69665 80.70367 82.24884 99.13040 107.01008 94.44752 78.15511 79.54162 68.21157 62.23019 62.43736 85.05643 90.36600 82.08054 41.71882 7.37469 7.94129 -8.89757 -15.15410 -21.57903 -19.79865 -10.96715 -3.32188 20.46647 48.76831 48.17372 40.82134 17.53553 30.13673 39.87967 91.66538 99.21868 126.41879 114.49011 128.12205 109.46452 77.83549 43.48493 45.08445 50.82450 65.11405 76.44292 45.39016 35.88662 17.64933 0.88092 -12.09152 -7.24853 -4.90858 -4.81529 -2.46237 -16.62861 -16.18725 -24.89215 -22.13264 14.44801 46.20974 53.16602 41.73783 28.67507 -17.10497 -29.56598 -51.15975 -67.30448 -68.04518 -78.61846 -88.13546 -80.50493 -72.44043 -59.84621 -43.00582 -36.35209 -30.95004 -27.76524 -11.50763 11.97825 12.82877 -20.11621 -30.61386 -53.80411 -63.08900 -71.61130 -76.51933 -92.23964 -102.01239 -111.35600 -101.99964 -84.31560 -43.93828 -24.35476 -20.31409 -26.22432 -23.58386 10.13941 -2.85603 14.33090 16.89547 18.54324 4.68168 -0.83115 -32.67467 -66.32319 -97.13491 -113.77205 -119.68379 -123.81590 -112.26528 -106.09613 -101.53465 -113.93222 -118.91014 -127.43853 -125.81027 -124.71856 -131.40015 -156.83954 -173.36228 -172.71584 -170.36038 -162.37711 -157.33636 -154.44909 -158.78601 -164.25942 -165.09687 -169.37445 -156.40334 -152.06381 -139.48848 -123.97382 -96.55550 -92.42401 -79.44620 -69.56889 -66.82114 -75.64805 -101.62101 -102.65049 -108.79620 -106.90222 -120.45440 -126.41241 -144.48227 -151.08480 -166.51850 -162.36025 -156.54760 -136.91130 -130.48078 -130.43706 -126.37523 -109.97489 -108.40746 -118.22739 -141.21302 -155.31080 -154.26249 -131.83259 -123.94392 -117.31226 -107.31213 -89.43607 -79.51580 -76.10567 -64.23039 -60.55021 -52.55558 -50.26030 -59.33089 -69.10545 -74.81914 -85.35916 -92.69449 -95.18480 -90.61189
-159.54880 -164.77966 -170.92878 -165.46572 -160.11895 -149.67923 -136.45634 -133.30486 -141.06269 -136.68866 -149.54232 -145.58490 -143.52264 -133.89993 -146.82115 -138.42756 -132.88243 -131.33063 -115.59437 -112.29708 -114.59185 -99.01729 -81.23191 -75.95529 -68.36115 -68.91802 -84.10683 -88.87342 -91.16858 -99.15554 -95.11240 -90.76499 -86.69384 -77.74968 -92.97172 -112.90550 -114.10397 -106.42463 -104.67766 -95.92454 -92.52428 -85.78900 -57.68092 -49.30836 -34.69340 -27.71191 -16.07212 -14.87937 -32.35797 -40.29194 -61.24797 -78.10975 -82.57178 -109.68643 -129.17352 -146.90848 -139.53413 -145.46246 -150.92154 -173.65718 -169.25814 -155.44208 -145.63155 -117.11398 -108.92932 -110.41904 -106.72191 -107.01064 -112.38053 -108.28538 -112.39959 -117.81539 -96.62862 -81.73174 -54.92343 -31.68493 -33.86374 -37.94581 -7.13214 30.21220 60.05331 82.04757 100.96351 115.42992 127.30661 117.32942 111.27166 110.25983 121.87795 117.01564 114.75123 110.91513 88.50552 97.02236 92.23441 91.80376 56.52484 36.26836 38.26727 48.97006 65.78269 64.43099 71.79133 86.78156 89.78272 99.83825 105.63162 104.22361 106.81692 102.78732 124.26396 114.92235 117.89009 102.49913 100.50021 94.17842 82.98566 66.62220 90.29290 90.03566 91.91481 65.89045 37.90442 32.35377 11.66607 -0.11855 -8.72366 -14.39412 -8.36503 1.89656 23.94282 50.66196 67.45742 58.08852 43.48297 57.26668 73.37822 86.40221 99.59695 118.96017 119.30243 93.02713 40.66085 29.63905 23.08910 17.17959 36.70340 65.33647 54.92364 62.29152 51.83909 28.70706 19.97973 0.13023 -2.20603 9.34584 17.75989 6.79533 14.37064 -9.56770 -12.73609 -21.22645 -5.09979 30.61131 45.95971 47.97589 11.78989 -8.84234 -33.32882 -41.99389 -68.36334 -68.43947 -72.91664 -86.14354 -99.37804 -84.95135 -59.00676 -51.77501 -59.45171 -48.11953 -40.61240 -24.67210 -9.34284 -4.22795 -40.70163 -45.92400 -66.64677 -84.28257 -85.31919 -96.95914 -126.62386 -124.75720 -123.28543 -110.03674 -94.47517 -45.12130 -30.44417 -28.88437 -42.95927 -47.92065 -51.20280 -41.20338 -14.80397 -22.40558 6.42405 2.40640 -13.12971 -49.33497 -72.83021 -102.52938 -124.58865 -138.90837 -147.59677 -145.82256 -131.26525 -128.08277 -123.10228 -120.90316 -122.70370 -122.05016 -124.10446 -139.97351 -153.76437 -168.08625 -167.76103 -171.79445 -162.90156 -158.79440 -150.64252 -142.26864 -155.92540 -162.19476 -156.27879 -147.70496 -134.67341 -136.96963 -115.57432 -100.72110 -83.83176 -73.49051 -65.44195 -69.98928 -81.99695 -95.26292 -109.79771 -122.30839 -123.71920 -127.70073 -142.45731 -149.01178 -161.28134 -167.30626 -158.55405 -148.06059 -129.87004 -120.41413 -116.52347 -110.21505 -109.42965 -107.83936 -121.14669 -142.44466 -151.71993 -154.55439 -155.38703 -142.96063 -124.19386 -114.68823 -94.52736 -85.01936 -81.07002 -80.80193 -69.44885 -51.72050 -56.71601 -55.07519 -68.12410 -74.01034 -83.02923 -99.31372 -93.59304 -94.64141
-143.56126 -163.00413 -171.27966 -168.26173 -157.07619 -163.86126 -147.04335 -137.37287 -125.74376 -139.66474 -137.88652 -137.42188 -131.32886 -133.02699 -130.07865 -133.06219 -123.42144 -130.10033 -122.11937 -119.91416 -104.57953 -96.02377 -89.30705 -77.99045 -63.20834 -66.56530 -68.08784 -77.17721 -85.41307 -95.31874 -93.01854 -84.92735 -78.62266 -77.70688 -88.50358 -93.31071 -115.87976 -103.44716 -109.07585 -99.55080 -90.78352 -79.41880 -61.82003 -46.93408 -28.43364 -20.31366 -16.10524 -21.55107 -31.13015 -55.27765 -69.55151 -92.09708 -102.83001 -127.54377 -143.29551 -143.40592 -135.71147 -146.95383 -152.08890 -167.07804 -160.08911 -151.95853 -132.18251 -121.98144 -114.98853 -108.18785 -110.68959 -105.95158 -96.39542 -103.01612 -103.76478 -101.40203 -78.72321 -61.92553 -28.70160 -19.01283 2.94398 13.56554 17.49289 70.86767 76.11098 101.03093 115.70958 122.24477 129.31442 136.50019 126.44082 134.65241 136.17699 159.82696 123.44275 98.30612 83.92347 69.23049 57.91589 64.30763 48.06212 14.44546 13.92040 23.33737 22.98793 43.22515 47.41272 55.77586 82.11140 82.96904 90.69703 114.05847 114.88865 128.02638 122.90650 126.94365 130.67345 118.40741 109.01977 106.62606 99.50407 93.28023 94.80961 105.92502 108.74736 79.66108 60.95178 53.79886 50.23402 31.77588 2.67141 -17.47491 -16.53070 0.87980 29.94891 35.29095 68.00565 67.22136 68.84502 81.48157 102.68089 91.34705 89.74718 82.06658 74.20156 26.79933 9.81666 2.31028 0.84961 6.40124 27.76973 56.90196 61.31752 63.83550 50.34467 50.17226 22.97158 14.76042 9.94579 25.57688 26.43597 32.07003 17.14176 16.30048 0.09350 -1.87720 12.22779 24.88396 37.78547 39.64925 21.66241 1.52004 -32.23725 -44.76583 -65.05180 -63.86329 -66.39638 -93.25573 -107.99941 -96.99059 -71.51765 -72.50240 -72.55711 -69.48565 -62.09137 -52.03523 -22.74307 -16.13278 -35.62426 -50.63808 -87.73882 -91.56954 -111.95819 -121.01529 -140.65276 -127.03040 -120.37969 -107.31143 -98.73264 -75.82008 -62.78301 -52.91827 -53.60375 -72.79479 -84.04305 -66.14120 -63.14193 -31.24740 -23.85595 -20.98497 -23.68762 -55.25220 -76.53262 -94.72660 -126.92164 -140.90631 -144.30352 -162.60602 -141.78972 -154.22714 -137.38305 -144.29088 -142.64324 -139.99706 -143.57068 -147.64875 -155.79843 -165.61455 -175.60233 -174.49628 -158.67073 -153.03588 -145.23456 -137.11927 -153.47905 -149.75113 -142.47945 -137.82557 -123.55507 -114.25098 -94.80897 -80.25473 -79.68618 -67.42049 -69.76714 -71.74610 -82.63090 -104.56541 -126.85114 -129.61211 -138.08998 -136.69655 -146.64116 -154.68440 -159.93224 -163.50217 -158.92420 -147.41481 -133.70577 -119.15132 -115.53035 -111.22019 -93.54205 -98.48810 -116.94222 -126.54381 -141.93614 -140.07722 -150.74185 -144.51800 -140.77164 -133.13041 -95.66429 -87.18726 -93.04456 -86.98390 -73.93097 -68.33913 -63.68267 -55.38634 -62.99100 -71.62467 -80.06173 -100.26387 -96.64267 -110.23951
-138.58865 -144.29175 -154.84955 -162.85726 -158.52411 -164.82993 -154.93323 -149.33244 -137.77920 -133.59525 -125.70273 -126.50520 -123.08564 -121.18317 -120.84910 -121.49648 -114.36319 -118.16065 -117.56898 -117.58402 -112.03619 -99.62264 -84.81600 -86.43136 -59.67699 -55.19098 -60.26311 -70.91746 -85.03876 -84.71363 -85.89522 -81.64774 -70.06377 -72.88126 -77.19905 -94.63379 -103.26102 -107.67274 -101.06414 -96.00206 -92.69606 -82.37624 -60.68009 -51.85082 -42.46861 -26.83247 -21.97585 -31.33886 -35.94563 -56.10522 -69.61141 -86.06762 -101.77879 -121.49173 -147.26492 -144.07140 -145.89949 -153.57192 -160.25365 -158.08274 -146.71212 -141.08217 -129.90495 -131.44719 -132.63891 -130.62586 -122.00106 -111.93343 -104.12473 -98.69067 -85.50529 -80.67319 -76.05197 -48.10722 -30.26398 -12.00047 -4.39693 11.10338 42.55390 74.89316 93.49170 106.16045 109.29987 113.74991 125.62869 130.50652 143.53157 153.29204 152.65810 147.79477 127.98414 88.68317 52.26778 44.32497 38.50787 45.05432 27.42756 11.38441 -1.47882 4.70124 20.94388 13.59679 19.32052 49.83790 56.94327 57.90857 80.92632 112.28218 125.73483 122.81705 116.48590 124.36950 115.28560 121.07195 122.44489 121.91116 114.54321 112.96925 128.52929 111.11054 105.88227 100.12500 88.46501 69.95667 41.85740 30.65782 8.33779 -11.79163 -13.99835 1.51738 12.32911 32.12949 51.95055 82.38334 96.46116 98.87779 112.46277 116.49489 92.94170 73.89129 29.39263 0.33789 3.52948 1.53237 -10.69473 -10.63784 8.71265 49.03691 58.67107 59.51869 48.78425 47.59364 16.50329 15.40616 7.13152 20.78223 30.30927 40.18399 34.46066 42.65432 31.52526 34.54699 20.17700 24.51568 32.84547 34.29722 13.90352 -11.44986 -9.36829 -39.56047 -62.33129 -66.68061 -83.78999 -99.54644 -107.36406 -97.44692 -96.49905 -93.87078 -78.78031 -82.40025 -66.95244 -63.69376 -38.91095 -33.68638 -31.76654 -61.82943 -89.13178 -100.37960 -112.10629 -127.94031 -144.04492 -138.70923 -121.60451 -108.35656 -105.28594 -94.08809 -75.47187 -71.21590 -97.70688 -95.34515 -99.97996 -98.44259 -90.02319 -66.40403 -36.18217 -30.97580 -41.99125 -60.14625 -59.33955 -85.50903 -110.92138 -119.22155 -147.09717 -162.59190 -161.35609 -157.27899 -161.34518 -155.94722 -162.84825 -162.83411 -151.23484 -155.28756 -163.97160 -172.65678 -170.36500 -168.85604 -156.55691 -148.44867 -142.04307 -132.47194 -135.81935 -136.80223 -130.41623 -131.28083 -116.23678 -90.06911 -86.65657 -75.73859 -71.65933 -72.39655 -75.39881 -75.54100 -90.52941 -103.88223 -120.82931 -133.55108 -143.15896 -148.38681 -164.01062 -162.95815 -155.10079 -147.09922 -144.42323 -132.37011 -123.65519 -115.53178 -103.00312 -95.08867 -87.13144 -93.81031 -114.93293 -120.57829 -123.82713 -121.15229 -132.64648 -129.56692 -135.97287 -144.55218 -115.93969 -110.56443 -101.96795 -102.99276 -77.34723 -75.23177 -66.20850 -70.74349 -64.67417 -62.18920 -76.66671 -85.82496 -93.47284 -105.54737
-135.99972 -139.67318 -154.39355 -145.41017 -151.39103 -153.72625 -155.26405 -150.07131 -148.86983 -144.16310 -129.94849 -120.32225 -112.03164 -109.08816 -106.36711 -103.71855 -97.06947 -104.74572 -105.86934 -102.95736 -110.34468 -98.52247 -89.56069 -81.89546 -65.05853 -58.44540 -63.13418 -67.71378 -83.30047 -80.75114 -76.50512 -76.12911 -67.70802 -68.89839 -80.27992 -95.72582 -97.09023 -81.96210 -82.30938 -92.53466 -88.07366 -76.67004 -71.27858 -57.78224 -40.31182 -26.22054 -29.71435 -49.14819 -58.11609 -78.84580 -71.52538 -88.31689 -105.33115 -119.83558 -143.41763 -153.53987 -170.82028 -164.78313 -168.81132 -159.67377 -150.54709 -149.02556 -140.40689 -159.49383 -154.53149 -143.05034 -122.63396 -111.94875 -104.99058 -99.02487 -91.16816 -92.40161 -66.61299 -42.15134 -25.56717 -28.40252 -16.91882 7.82230 40.60809 77.06997 73.33317 69.71429 86.69029 94.12322 105.20837 121.42179 130.25357 140.25913 136.05569 128.93411 96.06429 78.21862 37.52978 15.61432 25.09139 14.09258 7.79147 -20.22860 -16.83297 -9.82256 6.89120 6.89281 7.11088 17.69845 28.08202 32.29307 51.04607 90.15273 118.81942 116.01655 105.60574 87.66901 88.62554 99.72753 100.64195 121.24256 122.37177 142.90881 138.79296 140.70803 127.44273 111.11455 82.71783 67.51031 63.49010 28.17769 0.99179 -3.06856 -5.74363 -3.01282 11.61928 29.12342 51.90393 92.87402 103.98917 99.03144 106.34472 100.49151 87.61284 67.97753 25.81948 1.45218 -6.01035 -20.59656 -17.57047 -16.66534 -1.05234 3.39918 22.77325 25.78352 27.58297 33.24182 3.32404 -15.37876 -0.76167 13.19058 33.24726 40.26547 37.17549 48.77791 68.16114 55.61016 46.05178 34.80949 49.97768 42.76380 18.84836 -8.18352 -24.35790 -43.42669 -58.08861 -69.61427 -92.36344 -109.99141 -105.49960 -115.83678 -108.84165 -111.15203 -87.77304 -95.69552 -84.99825 -65.13065 -38.74365 -40.20808 -46.29240 -62.10830 -102.10295 -101.54507 -108.89602 -129.06833 -146.48254 -143.86770 -132.44188 -133.60933 -120.85067 -116.62096 -105.00881 -106.03269 -108.64808 -104.56884 -110.86133 -114.14046 -112.79587 -98.12461 -58.44592 -47.15922 -52.06934 -55.76057 -62.87695 -71.90219 -93.21853 -97.13052 -152.40574 -161.35908 -160.29572 -166.12279 -165.43988 -168.71582 -167.71690 -168.91823 -161.80239 -155.60021 -170.05461 -177.34719 -169.91566 -161.54220 -159.37691 -150.14057 -137.24566 -131.30178 -124.41877 -124.26944 -132.47256 -115.96153 -92.99040 -87.86501 -78.27831 -78.97992 -79.17371 -79.01770 -79.36973 -81.39784 -93.13000 -108.55906 -123.71657 -145.88930 -149.27547 -155.89675 -161.33039 -162.84895 -156.52213 -134.47664 -131.70089 -129.63209 -117.62994 -100.56562 -96.50948 -76.75869 -65.37752 -75.07619 -87.82803 -111.70844 -107.06178 -109.27943 -105.41678 -111.15323 -126.23041 -136.65040 -121.57891 -127.77218 -118.98678 -112.41253 -96.02773 -79.56656 -71.08865 -61.96838 -62.95146 -63.87702 -80.89809 -82.55431 -89.43486 -106.56198
-142.64801 -145.88077 -136.55991 -137.22765 -133.51331 -133.74151 -146.96267 -147.42031 -147.36237 -151.33443 -135.45785 -123.18359 -110.35975 -109.63086 -103.02671 -98.53366 -93.89577 -88.68271 -91.18266 -99.48035 -99.09020 -101.55966 -93.63516 -83.36541 -70.33854 -51.01641 -61.55539 -63.60021 -69.18852 -78.11760 -72.32885 -69.01179 -62.47706 -61.50071 -84.11733 -86.26820 -77.03914 -77.41620 -74.65644 -72.09176 -70.86114 -71.05879 -75.23322 -61.20055 -39.80865 -35.73914 -47.53612 -52.12923 -73.61709 -88.11878 -104.33587 -105.51232 -104.52256 -124.09323 -131.64583 -160.51739 -165.31758 -170.15626 -172.14829 -165.89203 -165.35220 -167.31494 -164.62981 -164.28967 -156.81308 -135.90593 -125.69697 -109.91416 -99.71982 -95.26192 -98.36610 -93.03680 -75.53624 -62.44024 -45.48465 -22.83268 -24.24405 -6.12692 42.98898 63.00793 42.87189 46.75550 41.22445 63.80124 75.99342 83.72416 99.65897 119.81187 122.34029 119.49955 90.62367 53.51664 43.33705 18.33671 9.74728 -2.49413 -17.22604 -23.95608 -20.90145 -22.46041 -21.15973 -15.43973 -17.96712 4.91050 23.78509 39.25236 52.71563 90.43017 115.85964 97.64337 87.98945 60.80994 70.15624 70.72173 81.71798 106.00413 124.42704 136.71015 159.62367 152.51553 153.33158 119.94180 91.94174 89.33236 61.00146 8.59406 7.25664 -0.59948 0.05139 2.83356 14.22483 37.00469 70.96020 80.46554 91.97203 83.95480 90.79564 77.56171 50.76391 19.76089 2.40858 0.98277 -19.45838 -28.78833 -33.65355 -23.27281 -5.13279 -2.59990 -6.83570 -11.15614 0.29141 -9.58618 -23.15837 -26.61505 -9.91519 5.72012 0.09964 26.57654 34.73187 39.76490 44.96135 38.88626 45.81463 46.79571 61.70776 67.13343 47.04064 2.86522 -17.17916 -56.29279 -61.34739 -84.63979 -95.02015 -108.98247 -106.63169 -115.59598 -131.99554 -128.79148 -106.25147 -84.73263 -71.08223 -65.32205 -50.16759 -45.11793 -55.06477 -67.49456 -84.68146 -111.79404 -126.46280 -138.59826 -146.81053 -158.49236 -146.52564 -149.39994 -143.71859 -129.72269 -104.48257 -105.43587 -110.20238 -121.35987 -121.16638 -121.50499 -117.80152 -92.14247 -81.84797 -62.00792 -61.43865 -63.09302 -70.02609 -69.68418 -90.48795 -104.21449 -129.56525 -149.82717 -151.74908 -167.33583 -169.68360 -168.72159 -172.52023 -170.23444 -170.55340 -172.87522 -176.65704 -165.44557 -163.50937 -160.24386 -150.08527 -145.09924 -137.76425 -120.54878 -119.78810 -106.45593 -99.90342 -91.78692 -85.80743 -68.47135 -76.87653 -79.24874 -76.65238 -85.05530 -97.60481 -104.27492 -107.66278 -97.86805 -99.05117 -124.45696 -137.74868 -147.96017 -158.18313 -162.39846 -154.63803 -132.63707 -122.01307 -120.34223 -107.64370 -103.87437 -84.18144 -71.85218 -67.92632 -61.34416 -78.69492 -84.17663 -90.26595 -89.81611 -99.44749 -101.86386 -124.61772 -122.61065 -118.79910 -115.21718 -117.00936 -111.92151 -92.96312 -81.94623 -68.45867 -54.59258 -62.23144 -69.94335 -83.59557 -86.42265 -96.82475 -109.03159
-156.99355 -155.86949 -144.63094 -139.02943 -131.09438 -125.42029 -127.60674 -133.34302 -147.11371 -153.44379 -141.83116 -134.75635 -116.61534 -104.17574 -104.88057 -107.00794 -90.09134 -79.60599 -85.98040 -86.90746 -87.31459 -95.87868 -91.01715 -90.16005 -77.37252 -60.14978 -57.96087 -62.86791 -63.55616 -55.35933 -65.10533 -60.51376 -56.05634 -65.55916 -74.18433 -76.27770 -71.57995 -66.57644 -65.32289 -62.38287 -59.31341 -58.13367 -64.24707 -53.54660 -39.21482 -37.73122 -47.12084 -64.28235 -73.38584 -116.26618 -114.74096 -124.53187 -125.77224 -122.40556 -144.66792 -158.11879 -170.84196 -163.34269 -162.52323 -160.48495 -162.66503 -164.23723 -163.81379 -164.16797 -153.06868 -129.32561 -111.72298 -109.94087 -105.95213 -117.69975 -115.01807 -108.52990 -74.11414 -72.39862 -72.74629 -67.39423 -21.70583 0.87551 39.47706 49.33690 19.10161 12.36389 22.52388 32.80575 55.92032 65.71750 81.03943 103.48224 129.12912 123.36066 90.99993 73.75641 65.61991 40.30446 19.37167 3.76968 -12.61168 -21.66031 -27.20924 -36.71661 -28.81000 -28.35417 -11.62955 9.22077 26.39384 56.16854 68.33314 97.79327 98.73687 92.23723 60.70359 48.27266 33.37756 57.21120 56.03419 79.93109 94.17121 120.83786 130.52958 137.69744 135.52611 117.11332 94.81834 82.47490 65.56254 32.70391 19.16987 17.67850 16.33335 24.52633 25.93935 47.21352 74.49428 80.94795 61.43716 68.96507 51.96139 35.58678 21.84679 13.61651 8.38973 -15.34596 -23.54615 -34.35867 -44.50688 -36.81540 -22.66517 -9.27724 -14.89999 -18.42396 -23.41667 -26.25199 -43.41287 -34.73293 -24.79828 -6.12759 -14.78170 -10.97879 -2.30295 15.70809 20.57206 26.98112 25.36115 40.94862 53.09653 61.51995 48.42362 31.01709 -19.79680 -48.03436 -69.08506 -74.13631 -91.49726 -97.24270 -91.10154 -116.26859 -131.32900 -126.20240 -94.68447 -85.29749 -67.96135 -78.88590 -55.57725 -43.82626 -58.20407 -62.30165 -72.88481 -104.06857 -123.33804 -141.60670 -147.71573 -157.01590 -159.41528 -152.51718 -141.21839 -124.31517 -108.46242 -97.75282 -102.09829 -119.07478 -141.96493 -131.41061 -115.34416 -92.97726 -93.39570 -79.36817 -71.35542 -82.05571 -77.85965 -88.30381 -85.32432 -107.23681 -119.36939 -134.53973 -147.02686 -150.69945 -164.81313 -166.56386 -168.52234 -171.19445 -174.60530 -172.25789 -166.66954 -161.74095 -154.74623 -164.70709 -165.58619 -153.23985 -136.75880 -124.05229 -126.07886 -100.11663 -81.85399 -80.40895 -74.81216 -72.13585 -75.25963 -79.33174 -83.18479 -97.58939 -109.90140 -124.01395 -114.79065 -105.97057 -115.42891 -115.43514 -128.46431 -127.67164 -139.09593 -160.13457 -149.32735 -140.33117 -124.68195 -120.16117 -109.15223 -90.44926 -89.84679 -76.62538 -70.11521 -70.34511 -75.34716 -77.91692 -77.37033 -76.89218 -86.83618 -103.56829 -112.97360 -101.09336 -98.55784 -104.72140 -115.01739 -110.68432 -93.25018 -83.75755 -67.94187 -60.07735 -59.01124 -66.94299 -77.28104 -80.50808 -91.80561 -100.18825
-165.05235 -160.16806 -150.63617 -136.13712 -130.24030 -127.74192 -124.11844 -123.03376 -125.57913 -131.18303 -137.11211 -137.28690 -128.05287 -115.28618 -105.32853 -100.20782 -100.78107 -88.74212 -89.50709 -82.46311 -86.68107 -94.71563 -93.37834 -87.84612 -75.89776 -63.30520 -54.04108 -45.29270 -42.47182 -49.64543 -49.84047 -49.28185 -45.14059 -56.29462 -73.95152 -63.22211 -63.47714 -56.92155 -55.76997 -46.63698 -46.15644 -40.05110 -45.37998 -42.21804 -42.70362 -38.95468 -48.89854 -54.44988 -76.56773 -103.70033 -114.13884 -132.54709 -134.69659 -137.74516 -146.20536 -169.28256 -167.42011 -160.87862 -150.99835 -149.85292 -148.74369 -155.93039 -160.43605 -160.39882 -142.24230 -122.39098 -114.72915 -107.90785 -119.87535 -131.79455 -132.74634 -132.60627 -97.26739 -87.12782 -81.20946 -83.36466 -50.46006 -9.95068 6.10398 30.81805 14.79051 -16.45844 -3.95705 16.20612 27.77120 32.18881 58.64411 95.48734 105.14902 113.54168 92.07546 86.30544 83.54541 57.44287 37.57889 26.92186 6.51277 -18.35703 -22.20458 -28.24771 -39.69564 -39.85231 -2.18924 8.59055 34.12021 53.96312 81.60968 96.51021 72.00798 64.59630 29.76371 17.33648 18.75422 26.48994 35.07751 50.52897 57.67853 75.64291 116.09221 112.35665 122.53068 111.99551 90.04026 69.92203 53.62724 42.98354 49.43606 36.61910 22.53834 23.99680 41.22478 65.89175 72.68219 65.66230 53.66469 24.67889 33.97883 11.79611 6.14691 6.55683 3.08182 -10.71968 -33.05706 -43.24720 -46.85073 -40.02083 -38.01297 -37.04616 -42.57484 -40.99187 -39.12539 -48.82336 -53.98060 -45.68210 -27.67898 -21.39220 -37.15547 -48.88561 -34.54609 -16.43575 -28.09778 -9.58691 1.14332 16.69786 37.49806 41.54259 31.55042 25.09526 -7.38435 -26.30244 -37.42084 -60.35945 -68.26677 -84.67472 -81.91551 -101.53612 -136.68480 -139.43193 -126.56413 -92.37276 -96.36432 -94.31537 -90.06948 -63.63509 -69.74743 -69.38867 -74.27532 -90.81302 -101.38510 -115.18816 -137.45903 -156.42497 -162.59421 -162.22874 -137.86686 -123.77231 -113.17512 -107.00020 -115.37545 -140.10991 -144.14371 -140.86319 -113.52962 -107.40394 -100.44721 -93.80518 -91.47241 -81.73573 -96.22988 -91.68632 -93.55292 -94.80676 -94.53470 -124.90742 -128.84200 -140.30798 -147.65535 -159.96186 -158.90778 -165.69773 -172.94591 -172.79351 -168.17352 -160.20437 -147.16607 -159.02913 -162.25518 -152.64824 -127.45427 -130.89664 -106.09799 -92.62468 -75.27072 -66.36147 -64.56492 -76.10753 -74.35266 -85.19180 -86.99552 -102.98041 -118.01912 -141.08497 -136.18307 -132.01170 -123.63634 -111.87201 -113.15948 -118.56119 -135.79191 -155.82109 -166.28204 -140.94657 -134.30480 -114.87770 -106.80782 -86.75162 -86.70944 -87.31022 -81.16398 -73.81406 -64.22774 -67.54824 -67.43871 -75.11967 -82.69986 -88.76723 -91.31723 -96.64458 -94.69220 -101.54437 -110.70573 -97.81083 -86.79338 -72.55874 -67.08284 -51.22684 -58.05417 -61.05343 -69.42804 -80.79451 -89.02601 -96.90062
-172.04192 -175.83460 -160.30988 -143.08755 -142.13391 -131.14635 -121.56805 -109.55701 -108.05489 -116.39591 -121.45188 -133.37368 -132.71468 -126.29959 -120.77017 -102.39522 -107.52997 -98.25895 -79.26578 -77.10351 -83.74573 -77.90502 -84.89990 -84.89626 -78.71572 -51.45387 -41.64013 -38.77720 -29.00833 -33.24499 -36.25806 -39.23533 -38.65129 -47.94157 -46.89995 -48.76832 -44.06745 -33.98177 -37.50173 -38.12027 -39.58653 -36.08018 -39.19522 -36.18739 -37.01653 -45.79751 -44.92626 -60.57988 -76.90913 -82.33462 -110.80542 -112.50541 -137.69068 -144.98455 -153.85533 -165.94962 -163.57397 -142.16238 -135.12997 -137.45714 -136.37330 -153.32864 -163.66917 -162.80274 -136.08230 -122.42975 -116.18498 -115.66672 -127.27363 -138.82792 -138.85869 -135.50579 -114.13424 -101.33846 -77.55778 -82.49589 -66.59128 -34.56796 2.69609 24.65866 18.73635 -15.97704 -28.17916 -10.82903 1.08621 16.17381 32.36516 33.75955 84.91771 82.30852 79.52598 60.97870 62.00464 54.01712 46.06841 48.73782 22.76103 5.87085 -13.54395 -31.43850 -44.50724 -39.53875 -15.47054 8.69979 17.39282 51.23344 75.71059 69.63173 64.72811 38.88904 19.37010 -1.98136 -11.90199 8.63261 12.01309 40.86721 41.11839 63.44774 85.37296 109.08299 111.34751 104.03549 81.16460 49.25569 35.85113 62.37761 71.03789 66.71973 63.35875 53.44574 66.44378 72.22437 77.58044 76.78144 50.39567 31.38008 -7.63222 -8.20768 -11.23230 -3.42830 8.25506 -8.85318 -16.40209 -32.30988 -41.78653 -53.40165 -46.73744 -52.53233 -54.25661 -61.28321 -62.77839 -70.95296 -72.72160 -65.48298 -46.31339 -37.00394 -30.18203 -68.67101 -68.99865 -43.13296 -43.97895 -47.89326 -44.55624 -34.56777 25.12253 22.81657 25.61789 11.54248 8.02076 -15.14688 -19.65104 -25.74898 -27.10763 -48.17485 -73.87212 -89.90801 -132.63311 -142.60625 -145.05526 -146.82389 -125.46394 -117.33426 -96.24440 -78.49209 -78.29327 -81.44921 -79.38604 -87.63131 -98.96391 -107.78164 -120.94532 -144.80930 -162.91029 -156.87765 -137.70890 -129.89491 -116.51406 -115.90252 -125.71856 -142.42020 -151.27469 -147.92693 -127.75632 -120.58658 -116.97689 -108.90886 -107.21753 -104.89999 -103.56378 -99.60620 -91.36138 -87.22525 -105.24349 -108.82317 -126.39467 -132.85171 -145.64797 -161.26510 -158.58986 -168.06949 -165.71894 -170.01673 -168.21049 -160.90154 -156.24739 -158.46436 -152.97969 -140.89906 -138.19224 -116.97448 -108.52496 -91.23968 -67.52498 -59.65895 -64.73652 -73.64773 -89.99441 -100.87851 -100.02302 -110.14475 -125.49144 -139.24041 -145.50922 -159.42429 -147.63042 -145.69238 -129.75837 -136.23221 -145.81338 -158.48214 -168.63363 -149.19534 -127.85144 -118.12796 -105.38610 -109.52034 -100.20102 -104.07333 -91.49843 -72.48481 -63.65616 -54.05358 -57.76498 -68.25261 -66.43903 -79.21744 -75.70880 -79.51000 -79.56141 -85.89735 -90.12677 -92.15196 -76.48073 -70.96236 -61.69823 -56.58620 -49.61621 -53.99120 -68.86167 -81.25158 -85.60001 -97.72582
-173.37542 -166.12868 -159.82635 -150.23881 -144.34719 -138.61204 -119.77447 -107.65082 -108.39634 -103.29149 -116.21059 -131.05106 -131.17079 -124.46617 -123.63762 -106.68455 -102.30822 -85.74760 -76.93710 -74.08411 -69.15865 -76.59912 -73.67970 -68.69725 -61.59978 -42.88098 -31.36565 -30.89853 -22.77961 -29.15956 -29.70261 -32.35451 -34.73814 -30.38706 -31.73777 -38.70204 -30.57113 -31.03065 -27.07737 -21.12828 -20.03409 -25.29575 -27.40290 -32.62128 -37.05914 -47.94917 -57.89337 -58.15317 -77.87253 -90.18185 -99.78561 -116.67241 -132.19019 -151.95751 -167.57072 -174.62335 -150.85701 -139.48871 -135.23293 -126.22830 -128.84407 -151.87815 -170.74812 -171.88130 -155.25330 -137.87134 -134.93083 -139.39281 -139.04885 -126.88928 -126.05831 -120.20931 -118.08127 -95.53470 -66.12276 -58.52027 -61.66893 -22.27136 -12.40093 8.73788 0.62935 -23.24552 -27.85673 -20.80111 -11.97024 -7.23090 3.51817 23.48925 46.99256 58.03843 48.38449 44.50201 25.96025 28.18706 29.69210 43.77702 28.63831 5.83632 -14.08758 -39.91845 -46.15439 -36.87638 -25.69617 -5.44648 26.81000 50.68456 60.56441 62.74206 39.02494 14.18262 -3.78501 -11.94269 -17.26500 -8.72038 14.76789 18.63945 26.16527 62.24858 76.88305 113.94670 117.27632 106.62627 89.98755 54.39720 44.20155 65.28796 98.14571 87.79178 79.70997 77.63886 77.78092 79.81376 69.12396 67.93577 38.70104 10.87246 -19.68827 -23.79654 -19.09594 -8.41719 11.62706 -2.17795 -6.16792 -16.77454 -22.32853 -45.96522 -57.59034 -56.27095 -65.47073 -68.21748 -73.82949 -81.14022 -85.43628 -67.24500 -56.84523 -46.42373 -64.88590 -78.03587 -77.54368 -79.78351 -74.80455 -64.40145 -75.81100 -48.52030 -18.24868 11.20751 7.90993 10.89214 11.21146 3.17275 -11.85363 -11.27704 -18.28441 -35.43388 -64.53152 -75.55021 -114.48483 -131.63478 -148.49357 -152.02433 -139.02514 -133.47570 -105.01367 -82.07813 -88.31110 -92.12356 -86.45386 -85.34478 -88.10247 -97.36035 -110.45710 -127.92214 -145.55114 -161.82557 -150.44934 -139.84048 -129.10642 -123.42043 -126.08784 -131.47511 -142.01736 -151.44664 -146.40118 -137.75363 -141.30136 -137.09669 -125.49097 -129.58094 -111.47040 -105.64821 -92.25160 -101.16823 -104.67111 -108.67651 -128.61160 -141.15753 -144.60497 -161.24131 -167.08948 -169.73701 -169.29139 -164.56712 -165.33757 -161.03858 -150.11008 -145.56832 -133.35436 -140.84138 -133.66232 -117.92477 -102.30910 -77.07141 -70.58777 -62.13684 -64.88459 -75.94564 -90.14508 -100.03419 -114.93902 -126.70773 -130.77738 -143.30438 -157.30280 -157.54527 -163.99090 -159.48890 -160.61045 -154.92416 -151.79777 -164.60509 -164.09754 -155.87378 -150.22692 -121.74565 -116.48485 -115.37439 -122.20545 -117.06355 -110.49745 -78.36680 -73.72518 -57.47664 -55.28238 -51.94690 -61.38574 -63.67665 -71.51528 -71.38874 -66.37420 -79.53923 -80.73709 -83.25763 -75.84818 -70.97814 -63.53564 -55.03708 -52.66424 -61.25868 -81.37748 -87.32296 -90.33615 -98.32354
-166.80523 -170.00605 -158.98676 -160.49133 -152.84652 -142.43707 -128.94650 -114.39038 -112.22585 -104.95350 -102.03429 -103.64341 -101.33907 -120.12932 -120.89570 -110.79322 -102.40827 -84.93638 -77.75261 -68.27306 -61.44816 -63.49658 -69.00105 -55.51992 -52.64727 -40.84500 -31.11901 -29.50959 -26.90852 -29.32373 -36.23635 -33.39623 -31.83285 -30.10265 -31.37381 -35.08226 -32.18784 -32.88533 -23.58473 -18.10712 -12.72225 -12.19766 -22.74488 -25.91539 -31.28095 -62.86928 -70.65309 -83.88361 -93.20275 -99.03672 -106.41484 -122.96662 -135.71557 -157.12841 -167.18033 -159.45827 -145.39565 -133.73496 -128.12398 -125.83229 -134.33781 -155.40139 -174.61736 -166.62222 -162.40819 -160.88555 -158.77154 -162.66857 -134.40728 -112.74246 -107.40400 -116.13706 -108.94716 -89.16200 -44.58043 -41.39608 -26.88314 -33.09151 -19.76407 -21.13551 -1.94539 -19.52200 -20.66703 -34.40155 -20.50200 -12.89262 -0.07292 2.36271 21.26791 37.37271 32.24159 20.29148 17.15753 -1.30552 11.97327 9.55873 6.79955 -8.42193 -24.56121 -39.89882 -46.31243 -33.01886 -29.65959 -5.11003 25.57445 37.39074 42.73172 40.96005 12.85150 -7.33718 -20.15834 -21.02669 -14.39421 -3.11102 30.88207 40.18280 49.36811 74.15781 85.42081 108.97388 114.28369 108.89519 91.08451 64.88711 84.64719 108.89892 107.92030 111.97220 97.28336 86.05580 78.05090 75.35803 66.96850 47.11009 24.32098 8.50965 -21.41725 -36.24719 -33.72489 -11.18247 11.45134 14.60019 4.19204 1.34055 -22.59933 -24.04339 -42.23254 -42.93034 -45.19988 -56.59583 -60.17407 -76.01563 -86.90366 -74.32481 -64.26472 -78.05254 -84.00028 -93.96324 -90.97407 -90.17434 -89.06470 -83.39906 -80.70831 -75.98648 -37.96330 -11.86399 13.56135 15.84476 7.88748 2.03732 -16.75958 -25.68419 -24.36358 -28.54522 -59.00295 -77.46662 -116.50903 -120.54794 -142.34825 -153.32891 -148.00252 -126.60860 -96.24673 -86.20639 -90.32486 -101.84065 -101.21443 -98.33178 -88.42626 -100.84285 -116.21940 -136.45131 -147.87521 -159.66865 -162.41714 -150.99326 -138.49923 -122.17379 -125.10991 -121.09189 -131.66936 -161.46418 -160.30973 -157.86214 -152.69875 -147.39886 -134.69250 -133.85635 -116.76911 -103.72776 -98.74996 -102.72798 -104.84548 -116.48191 -137.10492 -151.59557 -146.01829 -158.47058 -168.01207 -169.70965 -158.02955 -149.82318 -147.88708 -148.30627 -154.52732 -145.37928 -132.62652 -128.21748 -126.48018 -108.78621 -96.56532 -78.87658 -63.23399 -58.96995 -69.95122 -82.63307 -83.40165 -92.31371 -104.85286 -139.96315 -141.73211 -135.53090 -133.41917 -146.51638 -159.01826 -151.26156 -165.50250 -164.01851 -154.15968 -145.97346 -148.27850 -158.59941 -145.77190 -139.88086 -125.07313 -130.12729 -132.62634 -120.46731 -114.65322 -90.13127 -72.78019 -68.38422 -54.32974 -46.65838 -50.62349 -45.32488 -55.89063 -55.45371 -62.75425 -56.83491 -66.99650 -79.45676 -87.63036 -73.32005 -57.06465 -59.14418 -52.83203 -51.94736 -68.20606 -78.23717 -88.77899 -94.07713
-165.02999 -160.56575 -156.26788 -150.66248 -153.92938 -139.48796 -138.12102 -125.83154 -110.00874 -106.16248 -104.94111 -96.80710 -94.06245 -102.93556 -110.91090 -113.93123 -109.04412 -88.00886 -79.74260 -66.20583 -53.00880 -58.15043 -60.93067 -53.03587 -47.17103 -32.83651 -34.94936 -31.48478 -31.77432 -34.72696 -47.11860 -48.31233 -51.61760 -41.89704 -31.58147 -34.19675 -40.80251 -38.64532 -26.24700 -25.58013 -8.84862 -13.49544 -19.09910 -20.41355 -50.25805 -72.88221 -90.15732 -107.91892 -107.91749 -114.09658 -113.91984 -122.95807 -131.42543 -151.64976 -160.75888 -146.08075 -141.00215 -125.98820 -128.15054 -124.30253 -151.04806 -160.62731 -167.85512 -168.07675 -164.20787 -154.34317 -147.80974 -162.15917 -128.08221 -109.26032 -96.87156 -98.11909 -92.62667 -67.62319 -39.18216 -17.28823 -18.07087 -5.85505 -24.97869 -34.79294 -28.83093 -25.97253 -31.56875 -56.18762 -45.66837 -40.13910 -25.95642 -13.25962 13.80132 44.96665 30.37178 27.21728 13.42445 -11.99245 -15.55007 -3.01702 -0.02591 -15.12886 -34.01528 -43.96036 -54.86161 -47.25582 -29.55225 -17.93503 18.93154 28.05766 24.05327 17.35406 4.53151 -20.84147 -25.16284 -26.98250 -17.99882 34.36815 39.89335 58.17437 67.79889 87.01066 82.62053 106.85116 113.20160 111.29597 100.38437 92.94707 110.01085 124.06080 126.11884 115.87446 98.73756 76.09945 64.56293 68.15647 54.78963 17.19865 15.44205 11.97039 -23.91179 -37.77719 -32.54557 -18.40993 6.76980 5.75178 13.48108 4.69901 -0.12019 -2.07188 -31.93552 -14.22993 -33.70945 -40.60929 -57.24344 -79.01236 -82.96337 -92.80035 -100.03088 -84.45719 -98.90159 -104.95488 -107.81599 -104.21737 -105.01322 -92.87100 -89.40198 -72.78134 -45.60530 -9.58731 5.67571 9.92263 6.89961 -7.01120 -21.97122 -34.33241 -42.71800 -55.85978 -64.63364 -82.15223 -107.08839 -118.96996 -138.83364 -153.37425 -144.49849 -129.82293 -102.48188 -96.97663 -96.45801 -114.36707 -117.28430 -105.47002 -99.67379 -107.58493 -122.19298 -132.19714 -138.87143 -154.08745 -168.62220 -153.06323 -145.06359 -129.18437 -128.36665 -126.29054 -135.58247 -158.10107 -165.30652 -166.48509 -151.49133 -146.11200 -138.92674 -131.46027 -115.49998 -99.15162 -106.27011 -117.40364 -131.56934 -137.81829 -139.11839 -149.46909 -146.04835 -146.51598 -167.94617 -166.90606 -157.56793 -141.24408 -138.42148 -139.72414 -146.98838 -134.58755 -131.61841 -122.44889 -110.90353 -104.36672 -92.01840 -73.55983 -64.08817 -69.42442 -77.32996 -74.40656 -87.35329 -92.59565 -117.59293 -135.03481 -153.70137 -136.42063 -117.38454 -124.59276 -130.46862 -142.29054 -150.19662 -162.15264 -149.80836 -134.05746 -131.45563 -135.32007 -158.19272 -148.39690 -143.14664 -134.51268 -120.44905 -118.08684 -110.35603 -93.31641 -90.80797 -75.75695 -65.15582 -51.31604 -35.16325 -47.18337 -48.50968 -38.66506 -44.16575 -52.82111 -61.12095 -73.30852 -80.77923 -72.23720 -65.09620 -55.53899 -48.26482 -54.17282 -69.41793 -73.90664 -81.74560 -90.40530
-175.36166 -161.90898 -156.84989 -150.12187 -146.85986 -138.75945 -129.75018 -114.51836 -110.09274 -106.41839 -100.83145 -92.02929 -87.86762 -96.90901 -102.79916 -109.06359 -105.59783 -91.41779 -82.31430 -68.08732 -57.07435 -54.82568 -54.39554 -60.56769 -47.36208 -44.85326 -36.19066 -21.32281 -41.16736 -37.66489 -46.96036 -54.89114 -57.91866 -52.54893 -40.04617 -42.87701 -42.50504 -53.32140 -46.96608 -39.37416 -20.87108 -11.90683 -20.82559 -20.99571 -48.34000 -82.94149 -109.70864 -112.22136 -117.17777 -124.40817 -134.02818 -124.35852 -136.36954 -162.77769 -154.15473 -138.12526 -131.57527 -138.25706 -126.27216 -149.27247 -160.15768 -162.93279 -162.67829 -157.78326 -141.21176 -135.14508 -122.84257 -137.47482 -124.48086 -98.78292 -82.73413 -76.87422 -65.39434 -43.97997 -15.64367 -4.26651 -7.44313 -7.41473 -29.89835 -54.02289 -52.31401 -69.92423 -52.52391 -54.95555 -50.81517 -37.83963 -34.42402 5.24504 16.11808 36.35180 27.44488 22.45223 1.92605 -16.27669 -21.42066 -17.11861 -11.74000 -17.34977 -29.89346 -38.97582 -61.22336 -45.01577 -39.87703 -17.24442 16.54303 23.96861 9.58056 8.18975 -7.32517 -19.72167 -26.69563 -18.46576 -6.13054 14.25604 44.78841 68.83278 83.37829 78.46834 65.41541 69.72556 82.63831 94.80105 105.58304 103.27313 121.91591 137.75272 133.70518 109.15082 95.26653 71.04289 39.99668 21.61171 7.89695 -2.59456 12.37870 -4.20669 -29.18219 -48.08547 -38.31890 -27.80772 -5.45200 6.95292 27.76873 23.18785 23.68820 20.00288 11.05589 -3.58701 -16.47885 -44.82527 -52.60120 -64.86887 -78.55905 -87.63190 -101.82801 -98.76779 -109.52181 -108.48487 -118.54426 -117.24759 -113.12237 -106.24141 -96.13955 -80.91820 -48.07333 -35.84352 -28.58731 -18.83921 -19.50628 -11.12661 -34.95533 -49.01434 -51.27041 -62.52959 -77.16665 -124.66860 -132.19806 -138.25450 -145.09303 -158.19963 -154.18450 -134.78114 -110.82962 -99.56250 -104.29642 -129.22565 -132.05273 -107.45598 -107.32827 -105.18900 -126.45935 -132.37903 -141.80305 -154.12265 -169.90795 -165.36321 -146.73672 -145.40100 -140.11256 -150.93918 -150.08640 -154.39124 -164.12712 -163.08183 -136.15431 -134.30089 -124.35029 -117.55552 -113.62980 -110.55381 -125.13258 -132.85342 -139.80037 -138.40055 -146.29845 -148.88592 -148.68911 -160.52876 -165.95277 -167.87352 -154.02119 -142.63203 -132.55105 -140.84939 -142.73327 -121.47600 -114.26671 -114.94759 -92.00762 -87.28227 -77.59576 -75.65527 -71.82461 -72.81980 -87.02408 -82.48546 -89.97519 -106.37530 -109.06205 -132.40014 -132.85147 -109.93014 -101.19645 -100.35583 -112.59044 -125.00773 -142.00516 -137.71226 -126.44505 -119.62037 -114.62138 -129.84096 -143.64078 -148.32149 -146.62387 -136.13039 -111.26374 -95.80538 -87.54161 -89.17245 -68.62344 -68.52461 -60.13084 -46.73121 -37.40684 -33.93396 -22.03728 -33.41323 -36.06088 -49.35751 -54.35341 -66.88868 -77.72701 -70.73431 -62.08928 -53.39475 -46.03019 -52.24233 -60.44195 -68.66517 -78.67968 -91.39555
-171.52627 -162.19402 -158.23446 -146.28868 -136.33123 -125.95777 -120.57929 -114.87630 -106.94678 -104.90251 -96.36547 -87.59219 -97.76530 -96.47661 -99.85706 -97.18769 -96.27264 -87.01852 -75.17482 -65.57978 -58.02229 -59.32552 -63.74819 -57.77853 -53.46900 -42.35258 -43.87463 -50.47542 -43.92579 -49.92043 -53.57215 -71.32361 -72.46005 -56.18049 -43.44635 -44.58354 -45.52675 -54.94235 -56.07101 -46.86688 -29.96363 -17.73826 -21.35370 -18.65000 -44.17447 -71.72551 -93.03318 -107.30064 -106.57923 -112.63458 -140.18392 -143.72189 -153.64616 -164.83627 -160.07759 -142.97859 -136.11494 -130.09060 -150.99089 -162.87103 -160.14289 -150.22369 -145.14217 -146.07343 -128.62006 -113.99032 -109.68643 -102.78104 -104.70050 -97.24982 -87.28049 -62.25877 -55.79199 -26.33073 -17.95646 -7.58824 -6.12841 -13.08443 -24.32768 -62.61244 -73.75481 -73.45396 -54.75050 -55.64778 -43.85951 -33.52925 -2.23603 10.13243 29.33586 35.50633 24.81920 11.78874 -0.00688 -21.34873 -37.56853 -37.14554 -27.56149 -26.02691 -36.59424 -52.01887 -56.49165 -49.64965 -32.52552 -8.37435 5.28115 5.16753 -5.95704 -18.76480 -17.88569 -25.43967 -37.61349 -28.46456 -8.04959 17.42927 55.45127 74.25629 91.56528 65.24402 47.87741 43.25244 49.97298 73.54630 98.42380 101.52526 116.64962 135.13098 133.00889 99.64724 71.72490 39.26327 6.60195 5.54453 -10.94757 -9.45472 -4.86556 -6.67689 -30.60248 -45.88234 -44.76350 -33.71870 -13.03066 -8.29754 -1.78892 15.91080 19.56112 20.06212 24.44801 11.94892 -11.57133 -24.50129 -43.55484 -40.09314 -65.62709 -80.29309 -85.61935 -94.96390 -99.30548 -102.97045 -104.27175 -110.58783 -123.71522 -119.84156 -113.65552 -87.19585 -60.23542 -60.07612 -58.63652 -41.57240 -23.60267 -36.93876 -52.29069 -59.23144 -66.20541 -79.32137 -91.66440 -121.27541 -132.04271 -150.17625 -143.70017 -163.88292 -149.47672 -133.75741 -120.50159 -121.21342 -124.85077 -133.68606 -137.90519 -135.26439 -130.31301 -124.65361 -127.43048 -135.11873 -136.12109 -157.60962 -163.66454 -166.23366 -158.79746 -159.67180 -165.43074 -158.75441 -158.48906 -149.52089 -151.56201 -139.81300 -133.57452 -120.51936 -113.79997 -119.83900 -111.85185 -116.72400 -121.08808 -135.54658 -154.89805 -157.59175 -163.08799 -164.84784 -160.25499 -164.04065 -171.65328 -166.84617 -155.80925 -141.28406 -128.89517 -126.11773 -137.42327 -119.84002 -113.95183 -96.00142 -89.12441 -73.63033 -75.44934 -73.19304 -66.90711 -77.51545 -84.65819 -96.64436 -106.74447 -132.88372 -132.00683 -126.22413 -138.03713 -85.58145 -86.14825 -92.22529 -99.78786 -123.07072 -131.54626 -139.46156 -121.04958 -105.10197 -107.88210 -111.18851 -120.24155 -141.47162 -143.77490 -113.43466 -93.95352 -87.97518 -77.02720 -63.55688 -64.28563 -63.31060 -54.12507 -43.42216 -36.27051 -31.61552 -27.17276 -22.83646 -34.47947 -51.82040 -59.68838 -58.39798 -56.67250 -54.97120 -56.16094 -45.62082 -39.35397 -48.86620 -51.65754 -66.06147 -65.85018 -89.64017
-159.28043 -147.69992 -142.52146 -136.54711 -130.30414 -121.78127 -112.04613 -104.31359 -104.44597 -92.13899 -88.42454 -92.08612 -82.11451 -87.69464 -81.12842 -90.77091 -83.17476 -75.44296 -60.68994 -55.96657 -59.91472 -55.48527 -69.45514 -73.81430 -68.42057 -57.66770 -54.29124 -65.49426 -51.96716 -65.95068 -73.14727 -78.01615 -74.60098 -68.13611 -50.62848 -59.72663 -62.82686 -61.48257 -60.76128 -60.30101 -44.13494 -29.42113 -16.33505 -19.33913 -30.81206 -58.77327 -79.30496 -83.50692 -99.31829 -123.28477 -150.42660 -158.23704 -162.63862 -170.39620 -164.18406 -143.78708 -131.40269 -137.20988 -147.03057 -163.25170 -155.56051 -136.63370 -123.78585 -122.19402 -124.25210 -97.29012 -86.69646 -88.70466 -100.83926 -90.43382 -76.86685 -63.50224 -37.21079 -20.85523 -23.34743 -11.70304 -15.53771 -29.21043 -27.91431 -64.45971 -71.74399 -59.90635 -48.75188 -27.13126 -18.69400 -1.54404 10.50802 22.13444 28.48363 22.46027 13.40459 5.78862 -0.66237 -20.30202 -39.29867 -42.73792 -44.40812 -50.08677 -45.75350 -55.92429 -64.28565 -45.22471 -17.71172 -15.47014 2.13491 -8.91533 -14.88529 -33.89523 -31.80274 -28.54806 -20.92503 -10.48669 4.72856 13.26254 34.40494 53.91515 65.97398 57.19984 31.85524 33.60905 43.64901 53.11487 76.27155 96.90146 102.22457 104.58201 113.55797 86.02033 72.15587 31.32153 2.72369 -24.14556 -28.17108 -25.39607 -28.95446 -31.52487 -35.96422 -55.90530 -57.64861 -46.28864 -40.89499 -29.27127 -7.29626 -5.98808 -8.79814 -14.65699 -2.16052 7.06997 6.33045 -13.68740 -17.23647 -27.79064 -44.96162 -72.40828 -78.21019 -91.85142 -83.65119 -81.66550 -84.68356 -88.85792 -110.92363 -127.60198 -125.06857 -129.32009 -86.41402 -67.14600 -63.39560 -56.00191 -40.57506 -44.45246 -63.12949 -75.17345 -66.69598 -73.14068 -97.86603 -117.38347 -122.93490 -130.82241 -135.98708 -145.93968 -140.34889 -152.85370 -138.89411 -128.69144 -131.95489 -143.79475 -152.34732 -152.04791 -135.68756 -137.75791 -129.39357 -143.40133 -150.73450 -159.77743 -169.15479 -171.65284 -161.19107 -162.80564 -167.41822 -171.38246 -176.19532 -164.39526 -152.38139 -142.18369 -139.41832 -128.84604 -119.54245 -116.39908 -112.57681 -117.38411 -114.08023 -136.44025 -151.08867 -159.91570 -165.54931 -171.98456 -174.18090 -167.31903 -166.71109 -154.05255 -150.57977 -142.24299 -126.16253 -126.47700 -116.44923 -103.16501 -97.46344 -95.36726 -78.64478 -72.86891 -68.21665 -67.21195 -72.38141 -86.57713 -92.28286 -105.90636 -132.93138 -140.76588 -147.58512 -138.09480 -105.46112 -86.74872 -79.03939 -89.26276 -99.84461 -118.77022 -137.28573 -141.71134 -111.18599 -99.85562 -99.16774 -109.28773 -129.52438 -145.08490 -132.91087 -114.37179 -95.43728 -76.38195 -68.55249 -57.43304 -63.76878 -60.02200 -59.22867 -45.58407 -40.77314 -40.54574 -33.32183 -25.07994 -31.34355 -46.87518 -51.37715 -53.72212 -46.20405 -49.07844 -46.94782 -47.92321 -46.60177 -47.68165 -52.63102 -57.01011 -67.56976 -80.80591
