31.23658 27.05515 4.70335 -1.68088 -11.14680 -6.65224 -12.44880 -32.56603 -20.30595 -25.72976 -35.88318 -28.33797 -49.77080 -50.48928 -65.65034 -71.55648 -79.51683 -102.81697 -124.65294 -127.12591 -121.53670 -116.99283 -108.39492 -106.21060 -136.59341 -200.02025 -212.84436 -340.68791 -418.23855 -333.62094 -738.94441 -897.32852 -1016.91313 -1131.91661 -1214.44261 -1279.49544 -1343.67550 -1400.88707 -1448.31288 -1483.07307 -1485.97897 -1455.61292 -1446.91146 -1462.56139 -1487.00775 -1515.96761 -1532.43618 -1551.23705 -1559.25831 -1563.42361 -1579.86427 -1588.68706 -1626.78742 -1689.79641 -1774.72912 -1882.70082 -1979.24151 -2040.18862 -2031.32232 -1991.81847 -1942.80155 -1896.52932 -1884.71890 -1912.89685 -1966.50636 -2012.68094 -2073.12736 -2130.64998 -2195.62123 -2257.87079 -2318.72584 -2357.24594 -2390.06924 -2419.13215 -2450.03206 -2487.57267 -2519.13742 -2535.77189 -2531.96585 -2541.04149 -2539.90690 -2541.30294 -2532.76094 -2496.81134 -2487.89638 -2465.86609 -2465.52562 -2458.02047 -2453.01829 -2445.46697 -2445.43714
23.00845 26.47717 3.26301 0.64502 -5.79656 -7.02203 -21.92672 -26.03811 -24.73177 -20.24884 -31.26892 -28.16525 -45.12620 -48.27070 -64.84374 -72.18945 -76.34860 -102.44889 -120.65120 -124.27433 -117.90697 -120.77853 -108.66229 -104.73743 -139.14455 -202.37731 -208.88866 -333.14502 -415.72029 -335.41411 -739.29235 -893.79833 -1024.69582 -1125.73701 -1212.61407 -1270.78395 -1344.04766 -1404.11332 -1447.76430 -1478.25211 -1480.01677 -1460.62221 -1439.04114 -1455.38316 -1488.68833 -1518.46166 -1535.61287 -1552.91609 -1554.82194 -1568.37388 -1575.16714 -1596.61103 -1627.28709 -1688.08214 -1770.25418 -1876.78562 -1981.37997 -2040.18238 -2041.51717 -2000.42702 -1941.36259 -1895.76602 -1892.51834 -1914.34518 -1958.83103 -2019.62193 -2067.62026 -2138.59318 -2194.03585 -2255.98647 -2311.13519 -2361.47516 -2394.03024 -2424.47450 -2456.21906 -2490.13099 -2519.82740 -2532.20720 -2525.08324 -2535.75297 -2541.28765 -2545.47976 -2530.33755 -2510.63389 -2480.38468 -2474.64233 -2462.04570 -2456.33635 -2449.17628 -2450.25058 -2450.18292
12.46867 14.23697 -10.74876 -10.23369 -30.35143 -27.63894 -27.94288 -39.39398 -34.93637 -31.61687 -46.42179 -47.96217 -67.67721 -63.77178 -65.34154 -74.01105 -98.85471 -101.75559 -122.60910 -112.98982 -117.18226 -116.48121 -107.10505 -108.82937 -125.46228 -160.67215 -242.23043 -280.21004 -285.84209 -472.00189 -655.63519 -678.43424 -1008.55949 -1092.65965 -1142.29332 -1276.80305 -1357.46075 -1393.47166 -1444.12499 -1487.38693 -1479.06596 -1419.33027 -1418.87094 -1468.53550 -1465.34506 -1469.68062 -1492.36066 -1502.54808 -1560.10272 -1534.78861 -1534.24961 -1571.37688 -1577.36699 -1695.95052 -1779.84980 -1857.21539 -1965.89580 -1985.37983 -1985.45488 -1932.19556 -1929.06187 -1910.30912 -1847.27818 -1854.68773 -1970.51475 -2020.79239 -2020.31358 -2061.11998 -2192.62138 -2216.55848 -2275.34042 -2332.41678 -2392.89757 -2401.96919 -2427.53503 -2488.72420 -2500.84739 -2518.82734 -2521.83582 -2523.50423 -2537.82861 -2536.79055 -2533.04752 -2509.93427 -2508.35567 -2505.75339 -2470.70959 -2491.02966 -2502.35299 -2514.65549 -2507.81563
16.00253 16.00904 -6.41434 -32.19806 -30.41763 -50.63062 -67.45222 -53.10860 -59.25416 -61.42762 -57.48179 -74.82315 -82.07363 -95.34468 -99.41908 -111.14611 -109.15036 -111.32386 -104.57171 -114.44046 -114.56370 -118.49484 -118.29702 -126.72536 -129.16413 -155.35430 -143.36854 -183.88428 -194.57312 -205.39074 -384.11349 -497.32184 -665.02171 -910.17874 -958.02900 -1146.31454 -1274.82945 -1359.81059 -1408.77199 -1443.46376 -1431.25090 -1395.51535 -1367.35881 -1364.71197 -1398.83691 -1403.82144 -1428.78201 -1432.56188 -1432.56495 -1472.03873 -1494.08523 -1527.27920 -1557.26813 -1586.38310 -1695.02602 -1745.99695 -1800.65643 -1884.17014 -1871.52563 -1881.73984 -1844.76686 -1793.26408 -1803.17078 -1791.33590 -1842.11402 -1898.99198 -1950.76751 -2031.22467 -2066.40844 -2129.67585 -2230.12267 -2258.95001 -2273.91106 -2326.79439 -2362.77993 -2378.78686 -2492.46975 -2490.83111 -2489.00446 -2502.79190 -2508.29810 -2535.72655 -2540.20862 -2542.87479 -2533.27503 -2547.73581 -2557.79614 -2556.44313 -2540.80961 -2551.32899 -2550.03684
22.64458 15.64594 29.91577 -20.16808 -36.72292 -38.44113 -54.16937 -72.63309 -76.64190 -66.36229 -73.95713 -71.45777 -91.57085 -101.27010 -106.77570 -116.70284 -113.08657 -94.76180 -106.87993 -104.53518 -110.31690 -106.66763 -112.05766 -115.84157 -122.86227 -126.34714 -133.44380 -147.77147 -148.34730 -191.27357 -235.82078 -392.44755 -640.03897 -789.54316 -917.78476 -1080.40242 -1006.25021 -1115.29837 -1217.59859 -1281.86708 -1414.01314 -1114.75114 -1078.11135 -1173.78383 -1200.02686 -1392.50537 -1356.37043 -1350.96755 -1379.46764 -1433.99759 -1432.14812 -1501.31615 -1531.09797 -1563.93191 -1615.66672 -1686.47728 -1797.44612 -1786.31120 -1847.68882 -1826.24611 -1777.55580 -1767.19936 -1778.58441 -1792.52324 -1776.91469 -1809.99986 -1937.77967 -2033.14592 -2031.02574 -2123.06611 -2147.91556 -2167.60863 -2193.92181 -2231.87263 -2285.44703 -2328.29799 -2394.84470 -2426.65344 -2472.65635 -2486.52021 -2501.28187 -2509.56494 -2532.70664 -2546.44315 -2547.03628 -2549.78726 -2566.35387 -2552.96563 -2556.32285 -2561.64937 -2559.58860
33.19476 31.48532 11.45694 -20.55898 -22.82541 -36.59538 -52.56816 -74.84337 -80.34777 -85.04681 -88.66994 -95.27850 -109.05956 -110.47880 -103.08096 -100.64446 -104.44099 -98.57381 -101.31443 -112.71542 -98.76949 -101.26412 -103.32971 -104.71789 -116.97362 -125.30849 -129.33082 -129.08955 -135.98625 -137.62437 -205.85721 -345.61177 -324.44239 -515.61365 -583.40267 -694.65992 -554.45164 -812.59656 -827.08692 -851.00365 -766.44301 -698.76963 -768.43358 -735.42866 -733.51894 -918.34076 -1089.55890 -1281.77144 -1296.04466 -1375.07289 -1404.43670 -1456.91870 -1477.70451 -1496.99491 -1490.51178 -1642.25575 -1642.53297 -1732.93954 -1690.21095 -1731.53611 -1742.59018 -1717.21696 -1704.78514 -1680.08224 -1711.11448 -1729.51579 -1732.71240 -1919.22206 -2005.15409 -1988.41881 -2049.98645 -2095.15208 -2113.35391 -2140.83037 -2173.27405 -2235.54642 -2298.41662 -2325.61691 -2399.87181 -2449.03694 -2474.32463 -2513.83488 -2514.30451 -2526.51663 -2529.90221 -2539.71614 -2547.25922 -2553.19660 -2557.53248 -2545.16709 -2551.78036
34.72459 33.56888 8.28223 -12.66692 -29.43985 -50.49848 -65.75534 -78.01300 -80.47234 -92.36714 -92.20119 -104.04556 -99.09169 -93.79544 -84.75314 -83.12422 -88.05344 -90.22953 -97.09324 -107.95825 -103.50804 -97.11327 -96.41269 -105.27921 -111.95923 -120.93702 -120.47474 -124.75491 -121.66979 -126.73325 -129.57838 -209.90640 -249.39318 -240.08761 -391.12148 -354.01027 -455.02862 -460.80690 -461.38965 -535.31535 -475.76941 -414.84799 -385.82848 -618.94492 -487.65195 -606.99061 -792.76429 -1071.79399 -1261.99814 -1313.63077 -1349.72983 -1397.08431 -1441.50787 -1473.97807 -1433.63460 -1464.95640 -1598.18162 -1622.35370 -1629.29744 -1660.08466 -1678.94476 -1666.52500 -1651.84804 -1645.49494 -1678.23891 -1687.77843 -1757.30354 -1833.94577 -1935.73327 -1952.48312 -1972.51770 -2000.57591 -2016.20329 -2039.64574 -2079.47735 -2190.14750 -2203.97734 -2214.34817 -2285.06590 -2368.68559 -2428.94581 -2453.14145 -2487.14229 -2496.43641 -2510.47430 -2499.53813 -2515.90643 -2533.24246 -2546.00047 -2542.92951 -2549.19972
81.57196 86.06249 36.13178 0.18277 -2.64830 -29.54603 -57.55305 -67.28021 -64.44893 -76.00151 -100.13530 -93.54330 -93.61816 -81.78282 -71.12915 -64.39703 -77.29584 -89.20237 -94.70288 -99.42760 -97.70062 -96.31381 -92.30491 -107.55762 -103.13704 -113.27015 -115.27785 -113.63549 -116.80489 -118.29782 -122.54030 -142.71872 -141.98036 -169.58586 -171.65675 -222.22935 -261.14364 -312.77803 -405.72645 -336.81620 -318.01742 -339.17551 -253.80650 -337.71342 -345.50291 -357.95408 -608.63214 -939.21176 -1144.54023 -1288.63269 -1320.27866 -1365.87296 -1350.09264 -1423.80763 -1421.81441 -1393.00925 -1457.70682 -1525.63064 -1628.10777 -1608.98226 -1648.99445 -1651.64759 -1620.76802 -1617.55449 -1662.39298 -1696.87626 -1724.18642 -1816.11218 -1883.94824 -1891.43116 -1942.60478 -1950.12318 -2005.25710 -1992.45912 -2006.77717 -2059.51678 -2130.22351 -2186.91045 -2254.14676 -2349.35035 -2364.29982 -2436.71058 -2455.97386 -2468.76558 -2489.92896 -2488.28003 -2500.93562 -2506.94010 -2533.71731 -2541.19383 -2539.48268
124.67106 121.97217 117.06008 15.50187 17.48275 -19.40909 -51.13985 -48.35485 -62.22654 -81.41559 -90.89345 -95.99970 -77.43304 -68.95942 -71.56036 -68.55765 -70.79470 -81.76547 -93.21076 -92.21977 -83.74329 -85.95838 -77.52099 -75.17141 -98.00460 -102.97425 -115.08476 -108.58751 -125.36596 -120.04426 -121.44799 -121.75297 -140.62206 -152.02310 -150.91244 -150.31394 -152.47607 -151.19001 -246.99091 -184.05270 -239.74942 -152.67506 -211.04841 -210.84665 -271.28126 -326.24023 -489.59541 -675.17972 -996.19805 -1184.70148 -1211.71290 -1216.35141 -1292.87939 -1294.13847 -1328.82216 -1354.80209 -1336.80931 -1473.47959 -1526.96698 -1567.84452 -1592.68495 -1611.87009 -1610.89096 -1584.04512 -1638.25397 -1657.18036 -1699.02374 -1735.22061 -1832.95166 -1882.91300 -1883.03071 -1898.59756 -1911.02989 -1945.79290 -1959.65837 -1999.29986 -2051.38053 -2087.77598 -2230.33434 -2236.35823 -2321.11666 -2341.30125 -2409.24704 -2415.42222 -2467.19769 -2482.46965 -2488.62736 -2500.43094 -2520.29197 -2525.95399 -2525.30808
270.85500 265.92924 163.07920 58.09715 29.25176 2.70637 -30.65219 -56.22015 -59.59525 -82.07044 -74.27427 -69.32815 -56.15920 -59.43898 -62.73811 -61.48501 -65.16024 -86.60088 -101.13321 -90.60945 -78.67476 -68.99451 -69.14044 -83.60564 -83.93143 -96.29438 -109.96487 -110.66860 -108.12319 -118.04786 -118.43369 -124.24933 -125.61351 -135.00104 -137.63221 -133.53380 -130.47481 -134.52129 -151.11161 -153.80734 -160.49547 -149.05480 -147.33087 -154.10753 -244.42537 -308.52540 -446.87814 -518.99148 -977.69741 -993.18298 -1091.78831 -1166.32697 -1096.32272 -1215.23295 -1232.33201 -1258.46076 -1317.08345 -1387.71290 -1410.26591 -1480.58718 -1499.49737 -1573.55073 -1569.94137 -1561.94567 -1556.59697 -1598.14597 -1646.11630 -1693.49588 -1772.76090 -1849.80888 -1847.08101 -1858.37988 -1869.51245 -1896.55377 -1917.68742 -1954.18504 -1952.97865 -2009.00911 -2114.23613 -2136.38031 -2249.74914 -2305.55395 -2380.38757 -2379.84571 -2405.33022 -2435.77675 -2469.75471 -2471.70643 -2506.10615 -2509.53067 -2509.36713
413.14010 408.51123 242.40914 129.63634 35.24126 -3.99897 -17.20672 -54.14826 -77.41312 -74.85526 -70.10948 -50.53621 -45.69047 -47.46582 -53.90120 -63.41379 -63.88029 -76.99203 -91.04908 -86.72983 -72.36484 -71.28614 -66.59737 -77.17949 -85.63144 -93.90548 -94.82603 -101.29561 -111.52128 -120.86507 -112.54000 -112.91174 -120.82316 -125.72965 -122.85934 -118.58045 -122.96124 -140.97569 -135.51001 -140.47159 -145.03888 -137.95413 -150.61010 -141.81116 -223.48367 -260.52773 -393.59772 -545.69648 -752.13975 -765.59479 -727.65407 -812.13218 -836.42793 -941.86948 -1140.99413 -1203.07014 -1170.84500 -1257.45441 -1321.23996 -1379.32918 -1428.08179 -1511.08954 -1539.85523 -1538.17473 -1533.93472 -1543.40259 -1567.88950 -1658.08763 -1719.61862 -1793.68330 -1796.50788 -1826.38209 -1819.31972 -1848.53339 -1894.84092 -1898.81762 -1913.34778 -1925.33932 -2013.94233 -2079.83208 -2177.87333 -2221.35162 -2320.77196 -2312.41968 -2369.86796 -2385.74001 -2416.73305 -2436.54008 -2468.84259 -2475.65848 -2477.37883
186.09460 187.08661 276.98614 108.73763 79.58155 14.25158 0.34805 -30.89864 -77.31080 -54.87489 -49.07536 -38.34371 -37.75515 -36.26727 -54.51540 -65.56004 -76.94784 -82.41905 -80.09810 -75.67409 -72.55578 -64.08481 -74.31505 -75.92344 -82.76742 -89.22178 -101.99318 -110.54327 -109.45666 -109.04855 -104.11914 -108.48255 -114.73226 -118.17818 -118.82228 -115.24424 -124.91872 -136.96717 -135.56173 -128.07237 -133.55238 -142.83712 -138.77429 -135.03147 -191.75143 -200.78343 -231.11957 -475.63171 -537.05712 -594.01617 -504.91037 -492.77665 -508.81713 -683.25836 -963.96927 -1115.09239 -1110.95562 -1200.13475 -1268.62523 -1363.50515 -1371.07236 -1438.41027 -1486.21641 -1477.35417 -1492.76446 -1542.36657 -1572.74892 -1583.56444 -1659.40121 -1738.02789 -1764.02272 -1800.35311 -1817.56589 -1843.99072 -1863.66089 -1897.21139 -1914.57273 -1921.53999 -1970.02267 -2037.81832 -2142.40201 -2201.46004 -2241.90915 -2289.12487 -2296.99422 -2349.62258 -2369.94468 -2394.85716 -2438.57546 -2437.19312 -2436.35410
266.06150 268.12489 244.80323 229.29123 129.73493 85.15611 12.22879 -34.42957 -63.64294 -50.82147 -31.03494 -27.82172 -20.06696 -35.32528 -44.37861 -61.27103 -72.79573 -80.24814 -80.57299 -70.58669 -68.99458 -57.52809 -72.84030 -85.21042 -85.31453 -90.32491 -97.73047 -101.74928 -94.11434 -101.06360 -104.66082 -104.67794 -109.70916 -118.37960 -120.91494 -110.61550 -112.80523 -129.30668 -130.89080 -126.75529 -126.35602 -131.64495 -131.28784 -134.36215 -143.17787 -154.02372 -289.15608 -278.08644 -241.31349 -375.01451 -310.26941 -384.45269 -354.48803 -551.49519 -785.61913 -880.43104 -947.45140 -998.36859 -944.36200 -1039.63539 -1125.36787 -1411.62661 -1422.82794 -1417.98988 -1482.82637 -1526.69349 -1552.37920 -1594.66241 -1643.48584 -1671.93866 -1748.37584 -1761.70315 -1797.13941 -1823.72027 -1858.54963 -1874.98120 -1889.84877 -1910.16637 -1943.73003 -1988.21425 -2052.24501 -2124.66910 -2165.73016 -2218.26350 -2260.69908 -2279.20201 -2306.67977 -2317.85498 -2379.50493 -2381.82988 -2389.07633
384.79202 386.41406 384.40226 295.01362 212.40750 80.43551 -3.07890 -35.81113 -68.81728 -42.58082 -17.28450 -5.87244 -16.89181 -35.09700 -37.27070 -57.93330 -76.40512 -80.23107 -71.75450 -60.71489 -66.55453 -65.13658 -73.16542 -83.75247 -82.63174 -89.62818 -93.06555 -93.41962 -85.84242 -92.76371 -88.21887 -101.05905 -106.01580 -105.81531 -117.34628 -122.80503 -122.89915 -118.22740 -122.29460 -115.73165 -129.76024 -131.00379 -129.44146 -130.85243 -133.28404 -156.83929 -193.02763 -185.80401 -208.51302 -195.33631 -221.19615 -275.53972 -331.81455 -347.56106 -348.36222 -568.53676 -629.31391 -653.14303 -825.73240 -596.20702 -754.00115 -1080.31720 -1393.63048 -1387.88394 -1461.95345 -1477.53681 -1536.69890 -1591.44733 -1646.26585 -1659.76771 -1717.06929 -1752.58932 -1781.22101 -1826.75652 -1850.54567 -1855.75824 -1873.56987 -1896.69899 -1903.80717 -1963.84982 -2041.44386 -2059.93749 -2134.72464 -2177.78181 -2194.98379 -2205.38834 -2267.61774 -2289.54091 -2287.70402 -2329.49579 -2324.10374
522.88825 515.32054 384.32856 240.21731 213.11591 16.06600 -30.52025 -35.95614 -46.83707 -14.24548 -0.29247 -3.53136 -9.70881 -30.24715 -52.52430 -54.87500 -70.03768 -77.92112 -69.70909 -57.43621 -59.70418 -63.87710 -63.10333 -82.02996 -80.21862 -96.51494 -91.78590 -85.31283 -85.58294 -92.81353 -94.39016 -110.16581 -101.71794 -103.88492 -113.02343 -118.23103 -114.91748 -120.67894 -115.48519 -113.28463 -112.78658 -118.81917 -128.24738 -126.78350 -125.51605 -155.66667 -175.06100 -173.86729 -168.49745 -156.63673 -148.66757 -180.55038 -222.35275 -243.88831 -293.43027 -342.44360 -453.16962 -332.78958 -329.91956 -492.21155 -745.37074 -903.75669 -1238.33653 -1358.59478 -1400.88831 -1476.56422 -1496.93973 -1591.90615 -1617.99783 -1661.58327 -1702.22623 -1756.95156 -1793.05791 -1841.02674 -1852.40836 -1858.61913 -1865.19773 -1879.97776 -1904.71358 -1915.05255 -1976.77852 -2020.51229 -2080.62655 -2105.93493 -2124.17272 -2136.00847 -2211.32051 -2240.29145 -2277.26298 -2269.41623 -2268.84292
621.43890 627.40758 449.48855 252.70080 114.85412 2.01513 -30.36623 -26.04521 -12.47951 20.52601 18.22277 5.60328 -11.38898 -28.04455 -35.37786 -62.92849 -77.16697 -75.44316 -59.49756 -49.11185 -46.17910 -53.90432 -51.46609 -70.83451 -79.63232 -92.41894 -91.23341 -83.30387 -88.46840 -84.01655 -84.63341 -92.47378 -90.03100 -100.58238 -105.84768 -115.79963 -111.06012 -106.68966 -105.15857 -102.18844 -108.05189 -110.08494 -127.10938 -121.82095 -124.13372 -125.11055 -143.78186 -143.57348 -137.72340 -148.15460 -149.18309 -152.35627 -157.29434 -172.25479 -206.03884 -255.74099 -259.45987 -259.61712 -290.13200 -512.97315 -655.10682 -991.82771 -1147.28373 -1308.73308 -1408.32340 -1466.76596 -1496.08041 -1537.72895 -1611.44980 -1664.20511 -1707.87032 -1765.88652 -1830.02869 -1844.14708 -1852.46708 -1876.00201 -1879.20739 -1897.91434 -1903.33826 -1921.66289 -1946.88463 -2005.59269 -2028.55145 -2045.86203 -2059.48725 -2084.33719 -2144.82356 -2152.06047 -2215.36957 -2216.04618 -2209.14850
784.06426 785.83521 660.24360 285.97834 145.99678 8.03555 -6.21085 -3.60829 47.69694 63.54707 32.03008 14.89960 -11.96056 -31.45037 -61.76299 -67.74016 -70.03692 -58.19486 -43.60227 -41.06795 -42.72977 -49.28772 -63.09233 -71.67353 -80.28057 -85.20297 -80.57493 -67.28713 -74.33468 -77.76276 -76.54016 -81.47293 -87.26165 -94.98537 -98.76441 -112.44556 -117.61298 -103.25574 -98.27259 -110.82490 -103.75054 -113.71564 -117.18958 -116.53957 -120.38217 -119.56596 -123.59735 -119.67611 -126.08778 -134.84774 -128.25812 -143.28679 -154.89233 -159.89077 -165.51278 -172.23135 -217.51091 -186.10872 -345.45152 -448.94846 -649.35519 -911.98790 -1136.44337 -1297.46404 -1391.47646 -1468.33079 -1488.73358 -1543.91027 -1615.15134 -1672.43737 -1729.42547 -1802.99786 -1838.11296 -1865.86289 -1869.96456 -1898.39766 -1911.65831 -1900.50273 -1911.87082 -1932.08965 -1969.46106 -1972.28020 -1999.67422 -2012.44617 -2041.30596 -2061.31585 -2071.42438 -2102.58196 -2120.80331 -2160.94261 -2155.16532
924.82319 922.52062 680.77018 331.49360 173.30860 56.53141 -7.19143 53.38938 67.42370 70.73848 62.70255 4.11016 -32.85218 -35.48067 -65.28107 -61.74459 -52.39365 -40.89365 -30.36464 -39.13774 -43.64911 -51.11900 -73.94668 -71.77057 -84.47895 -79.34937 -63.99481 -60.53538 -70.59248 -66.60892 -73.02569 -86.66920 -90.85982 -90.84496 -93.90075 -103.56027 -101.82115 -111.43172 -108.15750 -104.86731 -110.45998 -103.55657 -116.57850 -118.53107 -107.68493 -120.05700 -110.89316 -122.99497 -126.35145 -127.57006 -132.06898 -139.89502 -147.15242 -163.01975 -159.40871 -164.05736 -168.29531 -215.21481 -235.30231 -527.42874 -673.64965 -891.15170 -1130.41425 -1322.02469 -1390.47001 -1486.89174 -1528.22947 -1598.11663 -1608.05198 -1693.23960 -1737.55526 -1811.59752 -1880.45489 -1910.86386 -1905.50089 -1901.29805 -1909.25413 -1928.96214 -1935.90448 -1949.22215 -1962.15986 -1977.98320 -1987.26170 -2004.48562 -2008.42628 -2033.44615 -2050.33814 -2074.42417 -2101.90180 -2120.80688 -2120.96437
1005.36385 1013.16668 768.73078 447.10511 170.01464 105.27516 53.76431 75.89922 161.29598 117.97989 62.89115 24.70656 -35.00397 -36.38572 -38.77767 -53.87653 -40.53238 -28.13296 -21.88297 -32.66151 -43.99082 -54.79381 -68.57197 -64.85183 -63.60318 -67.86476 -55.99731 -58.35945 -63.91306 -68.35846 -76.10234 -81.63820 -94.92717 -93.01111 -98.42105 -94.46406 -109.77585 -103.34673 -99.90007 -101.63534 -106.30103 -112.15530 -120.34872 -109.04190 -111.72858 -107.89541 -108.40563 -110.93538 -122.20423 -127.15461 -125.16778 -134.01714 -149.88093 -152.29331 -156.06975 -156.35661 -164.86525 -163.25539 -262.32462 -479.89183 -673.34124 -866.79346 -922.40295 -1208.92501 -1436.70253 -1491.12964 -1535.76218 -1593.74090 -1658.21811 -1706.59469 -1775.35609 -1875.91832 -1901.28927 -1924.76543 -1929.10443 -1926.90374 -1933.86978 -1934.17556 -1938.40713 -1988.65919 -1978.91265 -1985.43978 -1999.29779 -2006.94693 -2002.13478 -2018.14824 -2040.95694 -2047.65243 -2104.11794 -2106.67718 -2103.88713
980.82950 982.12719 759.65593 476.77899 320.06319 138.65769 143.75110 214.38663 209.32573 168.28158 68.40937 2.88635 -38.19698 -21.72287 -19.53037 -10.81450 -0.12606 -1.81077 -12.90333 -14.30668 -45.40826 -54.09243 -59.97078 -65.32370 -58.78823 -53.71920 -56.84103 -66.25279 -55.66492 -71.57729 -75.19136 -86.53142 -90.12139 -87.70826 -98.07086 -99.37783 -97.56935 -93.28262 -102.89252 -90.16203 -107.21827 -108.83672 -110.41253 -111.10506 -107.60749 -105.67621 -107.46837 -114.90189 -125.53006 -123.94608 -133.09038 -135.08043 -144.23792 -146.31976 -150.15272 -152.43082 -168.39659 -177.81029 -244.96272 -360.87671 -587.78559 -699.76755 -918.93866 -1252.59587 -1501.36816 -1522.80439 -1606.05324 -1620.48090 -1682.35679 -1759.84837 -1817.94546 -1877.35717 -1949.98218 -1961.82878 -1967.74782 -1960.05779 -1957.15242 -1965.83935 -1973.68540 -2008.53758 -1995.86229 -2019.14096 -2018.70301 -2012.47453 -2002.28381 -2021.76620 -2029.69840 -2050.09494 -2065.16281 -2078.29954 -2076.39872
1022.73691 1011.89116 830.97956 515.46606 393.53456 213.89538 242.62984 312.10922 296.23964 188.93620 88.44834 17.02878 -11.91557 -11.23801 25.70493 33.20939 24.34439 12.22214 -2.95898 -27.63868 -35.10003 -57.63736 -56.49499 -58.51200 -53.86219 -51.72433 -56.21154 -65.42761 -77.66959 -73.19453 -81.03289 -87.81114 -83.49211 -77.59086 -86.64804 -94.24287 -93.24872 -87.23485 -97.40648 -102.63994 -113.81055 -108.42421 -115.46277 -109.89292 -97.12370 -114.88113 -111.04388 -119.26458 -122.14890 -128.31041 -130.86787 -142.45674 -144.01576 -146.64195 -148.39892 -155.37562 -181.73230 -225.84640 -245.82965 -375.25817 -573.71266 -699.77954 -1010.78374 -1172.16809 -1436.20492 -1563.75123 -1617.87208 -1683.72885 -1757.21937 -1820.61127 -1842.80334 -1905.18029 -1953.86941 -1976.43746 -1984.39384 -1979.26853 -1990.98630 -1989.87699 -1998.76513 -2010.70983 -2018.56390 -2034.61355 -2029.58268 -2025.65003 -2026.63715 -2027.40163 -2035.74124 -2052.10565 -2066.41753 -2071.49458 -2073.42336
781.34742 788.47101 766.06967 587.78564 429.79122 345.06011 305.97163 352.71858 333.75782 160.93864 35.51420 20.27783 -0.99602 26.65827 51.12034 65.52592 59.06999 55.32916 56.83898 3.26199 -29.33349 -49.58075 -43.82815 -52.95853 -48.96581 -57.72654 -59.05533 -62.74633 -77.18804 -79.04548 -82.21737 -75.94489 -80.17474 -76.37473 -83.64862 -86.65283 -91.23750 -98.61900 -106.81828 -109.24968 -110.13753 -106.94538 -99.21396 -96.57214 -101.23788 -113.47175 -113.58693 -115.42590 -124.10530 -131.98434 -138.77757 -126.72217 -138.97602 -141.40893 -156.08285 -163.83571 -185.15844 -207.62106 -243.51047 -407.21943 -628.31873 -875.71368 -959.55073 -1185.01435 -1377.28360 -1502.21802 -1612.85514 -1701.85007 -1741.10152 -1804.87815 -1856.31776 -1914.15993 -1953.61060 -1990.33521 -1993.88689 -1977.33072 -1995.16358 -2002.99611 -2009.72960 -2016.86120 -2038.65256 -2039.24006 -2045.61065 -2040.17658 -2029.98204 -2037.97679 -2042.97676 -2045.27929 -2055.90137 -2066.04286 -2066.73221
590.00155 586.40991 653.21457 489.31343 462.39143 485.43211 479.86985 456.96163 442.90050 236.68131 40.70845 48.83048 55.34832 87.81374 112.08996 99.96690 95.50244 90.39513 99.86815 61.08597 19.24653 -31.05023 -38.35139 -49.25516 -57.35050 -66.05596 -73.40145 -69.52272 -69.22438 -70.27407 -73.60884 -75.59949 -63.43479 -66.83567 -71.08113 -81.25061 -98.23670 -110.86679 -105.58232 -110.62688 -105.93874 -102.10714 -97.42001 -93.74081 -105.63516 -105.64015 -114.44832 -116.79928 -117.85830 -126.55377 -130.03694 -130.11815 -140.39237 -145.26342 -156.73025 -160.69878 -192.51474 -324.50341 -440.42626 -549.33887 -695.18043 -857.31493 -989.75000 -1174.79190 -1354.10701 -1526.76678 -1607.23692 -1706.53227 -1709.83641 -1770.13882 -1841.14688 -1892.43813 -1951.36875 -1963.39240 -1983.24951 -1997.76305 -2002.33801 -2015.33866 -2013.07234 -2026.92475 -2036.47506 -2041.20982 -2045.32160 -2041.05782 -2040.93412 -2037.13326 -2040.40436 -2045.58828 -2060.84596 -2071.56521 -2068.57692
614.64464 615.28679 544.77569 460.94780 462.45136 486.68890 497.93126 478.87749 385.39517 245.01803 127.67752 128.01241 141.90267 160.08914 122.83074 102.67965 111.16797 114.72555 121.52808 87.91514 28.82292 -17.67154 -39.00508 -47.35353 -66.59770 -64.75823 -71.18506 -68.44002 -66.99859 -66.84767 -66.23435 -57.27198 -60.84409 -62.67253 -74.91893 -87.63724 -95.72425 -108.64994 -104.84345 -90.42852 -91.61020 -85.42154 -97.32828 -97.18523 -104.47439 -110.13951 -111.48008 -117.52043 -118.36443 -128.15090 -123.70253 -130.59853 -138.06703 -151.29853 -158.56382 -164.40384 -304.12387 -410.14220 -578.52830 -759.55204 -782.03115 -842.20843 -951.98680 -1139.96197 -1241.01542 -1410.29115 -1469.15209 -1631.11259 -1691.39337 -1709.32502 -1797.18865 -1859.48848 -1898.08915 -1938.20154 -1974.87654 -1996.80285 -2001.32573 -2005.59439 -2018.98503 -2033.75922 -2049.38273 -2041.97515 -2036.78829 -2046.10408 -2034.64297 -2037.51508 -2035.27634 -2035.59789 -2070.70678 -2078.66263 -2073.41418
606.65921 601.45538 519.73142 453.29363 450.49061 492.89338 497.28772 477.87712 453.79183 287.56879 239.46600 226.63741 215.76844 192.81700 90.56483 78.87100 76.84501 88.14698 92.65945 83.40854 19.72599 8.31073 -31.32889 -59.38969 -65.39755 -67.89611 -67.18075 -62.85321 -53.88912 -56.09730 -64.26262 -68.41662 -66.45107 -69.83093 -74.49446 -82.28515 -102.46138 -110.76671 -96.47249 -82.28363 -81.69629 -89.34741 -87.31851 -101.79603 -105.23965 -110.00241 -115.16720 -121.00726 -124.57779 -121.89972 -124.51242 -128.03510 -142.37928 -151.29168 -159.40654 -235.65590 -371.74324 -526.54174 -710.24719 -777.07065 -840.56377 -894.08024 -950.22122 -956.60583 -1158.35382 -1297.97420 -1436.88638 -1501.52266 -1546.61639 -1651.69902 -1733.92186 -1801.24476 -1872.07062 -1935.70758 -1957.21353 -1997.72713 -1998.31241 -1996.56243 -2016.41519 -2018.83647 -2034.53831 -2030.57372 -2036.34781 -2042.23161 -2043.03926 -2040.33732 -2033.29343 -2056.25557 -2060.78873 -2066.68623 -2072.65520
523.22357 524.93623 493.31557 411.29248 414.33816 471.72784 487.09079 501.01457 513.13289 418.63033 317.03836 323.87496 282.61519 193.90130 109.60718 40.99848 28.03398 42.20799 50.83835 50.97447 29.42173 -41.54175 -48.91136 -53.89692 -56.98151 -60.95089 -48.14034 -47.09485 -48.93384 -52.33200 -65.55342 -63.48595 -68.39812 -74.11070 -81.53475 -94.90637 -99.51183 -101.15661 -86.20488 -74.95054 -85.75976 -82.45544 -92.74127 -106.27492 -104.89141 -105.69301 -120.87803 -111.28430 -115.34565 -118.95711 -115.96480 -128.19338 -141.15588 -136.83482 -160.73340 -276.45466 -428.73424 -567.98832 -709.62787 -855.03375 -894.07548 -930.38709 -940.47833 -949.24228 -1066.11287 -1202.01459 -1270.09721 -1425.20106 -1509.47409 -1586.20254 -1609.58616 -1773.12759 -1802.53118 -1887.03122 -1935.79613 -1970.79558 -1976.75692 -1991.11622 -1997.84917 -2009.94070 -2028.45824 -2026.02922 -2030.13624 -2031.60289 -2038.88198 -2034.64692 -2039.27160 -2047.82536 -2054.43755 -2075.40427 -2074.79186
428.24262 435.31496 412.49445 412.04904 419.52652 449.31444 471.07709 507.49163 538.86069 500.11010 463.28514 394.68394 314.63681 166.21145 75.65013 36.13196 19.56572 -5.53761 17.80757 10.18053 -40.72095 -47.06615 -50.38296 -40.37576 -45.89643 -47.90347 -53.36616 -41.60303 -52.90262 -58.74531 -61.34123 -77.67086 -76.76952 -83.35233 -92.89508 -96.72259 -106.27133 -100.24704 -80.49799 -79.62931 -74.74501 -87.59357 -92.66341 -102.84981 -103.40193 -104.91888 -111.17301 -114.77206 -117.01168 -117.75495 -122.62595 -121.01919 -137.43045 -145.88512 -153.98282 -292.29255 -424.39199 -481.26627 -623.93184 -940.65807 -962.72080 -956.15415 -939.92226 -962.96671 -969.25947 -1069.53807 -1179.67574 -1318.84423 -1369.91641 -1414.94110 -1543.84664 -1614.54814 -1757.84272 -1771.70107 -1843.69580 -1884.27798 -1941.32889 -1960.70210 -1982.72413 -1994.48030 -2005.53317 -2019.11518 -2030.49493 -2033.17577 -2032.99736 -2038.57240 -2052.54591 -2061.44384 -2073.73464 -2076.02135 -2074.83071
407.35670 408.28575 413.77499 408.69498 410.75095 437.40379 467.51276 508.40827 548.06498 536.01725 500.40479 401.92955 278.41662 132.48272 57.04550 39.37924 35.76248 -17.24516 -30.59797 -33.82429 -40.42200 -48.24480 -39.54682 -32.40264 -29.41678 -41.67746 -43.16206 -51.87841 -58.20240 -64.13206 -74.21493 -79.40448 -78.93858 -89.28621 -92.06567 -108.54952 -89.60596 -90.85453 -85.84870 -77.94148 -81.49158 -75.75465 -92.48394 -94.06382 -101.45886 -104.06655 -109.09208 -115.33570 -113.95548 -116.70289 -131.16751 -128.58873 -130.67131 -135.35718 -142.06381 -222.71072 -384.80708 -487.64056 -639.19702 -831.78349 -971.07838 -992.21969 -993.38874 -973.78995 -973.61578 -1016.30798 -1153.82326 -1180.47171 -1304.71380 -1365.64204 -1422.34292 -1476.93500 -1627.73905 -1726.86609 -1755.87689 -1821.29670 -1890.59138 -1960.86478 -1961.49279 -1994.58330 -2002.64749 -2019.68249 -2025.99253 -2038.39467 -2041.39554 -2042.85021 -2049.65732 -2069.97886 -2083.21349 -2091.03986 -2093.98554
394.40365 401.01864 400.57134 395.40498 421.62324 444.35897 460.93995 496.55677 500.46967 489.62208 454.14818 347.16838 245.06676 100.20638 75.45970 75.97804 27.14308 -5.40237 -42.36255 -35.31011 -37.84479 -28.06201 -17.11094 -15.22847 -18.09885 -29.70010 -52.44052 -59.42092 -63.02523 -64.50424 -84.79079 -95.47409 -85.31586 -102.67666 -100.21244 -85.97445 -98.58974 -93.99792 -71.52696 -74.38689 -84.98689 -83.19336 -93.81113 -89.62889 -106.24138 -109.37896 -110.66262 -100.44742 -113.46427 -116.08003 -128.11737 -123.04394 -136.75528 -149.24116 -149.27716 -207.90367 -242.52057 -453.31217 -578.63871 -803.20917 -939.17863 -998.62591 -1012.84549 -1026.54211 -1024.14900 -1078.35517 -1135.82932 -1150.46650 -1203.21867 -1250.43558 -1341.14513 -1435.74968 -1553.93364 -1615.40427 -1735.76815 -1747.36754 -1871.41211 -1934.27238 -1969.12854 -1985.44646 -2005.58666 -2025.82619 -2030.95571 -2042.69929 -2048.27845 -2070.88197 -2070.91841 -2077.30353 -2092.64226 -2106.72454 -2111.00909
410.84203 395.93839 408.97033 398.85846 413.53150 440.60181 466.58936 475.45311 442.10496 409.55202 375.65086 322.21649 267.86222 116.90750 114.04300 90.44177 36.48798 14.37719 -33.46066 -38.24550 -29.40745 -25.35843 -11.36978 -7.73797 -31.29344 -25.36289 -41.40412 -60.69471 -80.94402 -81.61531 -82.99265 -92.25961 -87.31882 -98.57783 -91.13389 -77.67761 -73.71552 -63.05224 -68.96671 -78.42867 -76.16193 -84.59159 -94.44885 -100.81600 -100.55160 -102.32564 -98.74763 -98.47780 -104.69362 -101.89350 -118.03439 -121.43372 -141.10675 -131.98378 -146.54159 -152.32102 -191.54408 -232.20123 -382.10596 -625.08854 -929.35797 -991.39283 -1036.54952 -1054.31584 -1086.71020 -1089.74908 -1127.85621 -1127.34022 -1131.80820 -1206.07190 -1275.15324 -1301.18639 -1356.45367 -1549.78653 -1586.58961 -1684.99903 -1803.80239 -1936.63299 -1953.66994 -1990.21711 -2028.48781 -2034.24748 -2039.18752 -2047.51343 -2057.18077 -2077.84842 -2087.06831 -2088.15068 -2124.23214 -2121.89374 -2119.20735
439.77140 431.84453 408.55725 400.97648 392.98999 415.01678 443.84256 442.75278 434.00509 399.55221 379.16359 373.91307 290.70020 176.64874 100.51463 74.46751 47.16115 -3.56172 -31.97495 -33.69032 -16.41219 -22.36767 -22.91858 -26.65612 -40.33147 -31.70853 -55.54282 -68.49749 -72.19899 -87.28656 -81.86769 -67.39192 -77.78784 -76.42784 -77.61790 -82.97424 -77.91291 -73.64652 -69.29014 -73.70739 -76.72023 -94.60088 -90.92451 -95.24303 -96.51749 -97.98727 -93.01028 -93.45254 -97.15389 -106.60886 -103.96219 -114.95751 -129.93092 -135.24201 -136.73711 -143.15217 -144.90848 -155.63089 -296.27648 -432.28015 -800.51902 -969.46468 -1057.21783 -1106.58399 -1115.35217 -1115.74326 -1118.21661 -1127.89904 -1110.48133 -1113.59225 -1159.16931 -1207.34786 -1217.00552 -1370.35580 -1437.05937 -1510.02623 -1809.21268 -1868.03844 -1957.30309 -1975.87343 -2031.59684 -2029.61745 -2045.84901 -2043.80817 -2054.05375 -2072.96367 -2089.74969 -2110.90109 -2119.56155 -2130.87707 -2130.61166
445.93109 443.22292 450.63511 383.32319 392.66323 401.92704 421.97699 436.99160 394.03378 393.21235 377.10441 353.74897 265.59110 191.84526 141.78345 58.40091 28.55875 6.82230 -25.83556 -26.07957 -28.92854 -28.71321 -43.24111 -48.23581 -56.36682 -59.42697 -61.52771 -62.20531 -74.98237 -77.77844 -73.10000 -64.78721 -59.42766 -65.75533 -73.40747 -68.18529 -75.42863 -81.14922 -73.53934 -84.52062 -82.58458 -88.80600 -93.04618 -87.83201 -99.53477 -91.34957 -85.15852 -92.82520 -96.91741 -97.68568 -109.70637 -113.42322 -121.85724 -121.03615 -128.57698 -133.80468 -134.21155 -155.21505 -163.71030 -372.14167 -755.91960 -986.93507 -1056.44158 -1086.97877 -1125.70188 -1125.68690 -1139.23546 -1117.49716 -1112.07304 -1101.79743 -1109.35730 -1128.17367 -1189.17464 -1286.57218 -1324.66875 -1462.90069 -1708.36960 -1856.20124 -1953.98174 -1994.15192 -2019.51586 -2034.06783 -2033.92861 -2047.00244 -2047.92121 -2067.10293 -2095.95350 -2102.92163 -2125.55626 -2132.85649 -2132.63779
478.49165 475.53264 426.62321 393.46306 379.63227 375.86184 377.44226 380.77501 359.05295 365.07256 301.63010 275.19492 249.29853 211.85512 141.56686 59.86399 8.95652 2.02898 4.22258 -8.15559 -33.09144 -48.36404 -45.89077 -51.04177 -70.93806 -75.39826 -79.10315 -77.26028 -84.36958 -81.75288 -60.68264 -52.02890 -50.12597 -53.93539 -63.50733 -65.19928 -68.05925 -74.08005 -70.66472 -84.28088 -82.55686 -88.63112 -87.70701 -87.60483 -91.75806 -82.87638 -90.85220 -95.26798 -99.54885 -108.77738 -107.36271 -106.82829 -120.55684 -132.06389 -124.11551 -129.94924 -130.03258 -136.90915 -159.75555 -303.65746 -682.31883 -946.95781 -981.64887 -1100.16910 -1128.05907 -1146.02680 -1139.30336 -1136.88547 -1124.72097 -1102.83835 -1113.32327 -1124.45713 -1160.06932 -1179.81012 -1257.54352 -1465.27056 -1603.31863 -1802.36123 -1916.80370 -1978.41677 -1990.94831 -2004.39649 -2012.48153 -2028.90000 -2039.37869 -2051.33895 -2079.76206 -2103.08847 -2123.53980 -2122.81866 -2123.05504
492.96356 492.05138 442.25361 397.47826 388.94262 343.28810 314.23462 303.51945 297.70494 209.14790 228.70251 216.39838 224.27776 193.30723 166.86538 97.80326 24.05297 8.56433 25.88950 0.69177 -25.07239 -49.02762 -62.69216 -52.87360 -61.00687 -57.26481 -83.23558 -80.45103 -86.16052 -71.35353 -69.10346 -53.06670 -56.02941 -44.48645 -47.38134 -63.34181 -62.79523 -68.18734 -75.83210 -77.00647 -71.11322 -83.43962 -74.71013 -75.48752 -84.99215 -89.06133 -106.15261 -100.20008 -109.00933 -112.73584 -110.49692 -112.35575 -118.02876 -124.08502 -122.63914 -118.69240 -122.56089 -145.24909 -154.49808 -316.15114 -490.74813 -872.24446 -965.92424 -1029.37612 -1079.96063 -1112.57549 -1134.56733 -1129.13688 -1130.76992 -1128.02353 -1095.58004 -1105.14564 -1098.43845 -1139.40778 -1272.28439 -1392.24199 -1583.10588 -1754.07387 -1869.62002 -1874.11096 -1927.38801 -1931.81467 -1941.04586 -1964.43210 -2002.96729 -2039.98593 -2058.27912 -2085.47660 -2107.80100 -2109.22632 -2110.94968
547.60031 537.47209 476.85014 392.76638 375.89321 309.26127 270.75737 226.29392 226.02751 189.78468 137.54438 145.07475 180.88567 175.40149 157.18391 106.32476 62.00752 28.56573 47.43799 25.63087 -50.58920 -59.63303 -68.95153 -48.91099 -39.17224 -48.59913 -52.53244 -59.74033 -69.74560 -64.35507 -60.24601 -48.46402 -48.83550 -46.58660 -47.49416 -47.92168 -54.19044 -54.00745 -62.29411 -72.00351 -69.00666 -65.94539 -70.49810 -72.46094 -88.85326 -86.86513 -100.72855 -109.71543 -110.75310 -108.30922 -108.71163 -120.46293 -120.49653 -113.03666 -116.86237 -120.84762 -133.78251 -140.95079 -147.47659 -184.14068 -479.88209 -751.73782 -799.03176 -998.25262 -1045.17971 -1081.54030 -1113.50788 -1130.26463 -1132.36157 -1117.48813 -1107.06127 -1085.25155 -1072.61404 -1083.08933 -1136.74258 -1272.44497 -1389.31350 -1586.94291 -1739.98417 -1821.26595 -1857.24173 -1877.55196 -1881.95321 -1888.77173 -1964.86097 -1981.62352 -2045.88048 -2038.56657 -2095.00759 -2100.86256 -2100.93318
546.15185 560.28819 506.82767 414.83494 348.43713 310.05669 249.66186 232.77998 161.63869 108.76129 93.61545 115.24793 147.98520 164.88433 152.66822 127.13673 95.17709 68.96004 35.11904 12.00749 -46.62824 -55.98068 -62.99846 -54.93926 -37.95127 -26.68244 -36.45657 -50.86830 -49.70571 -57.73721 -69.83795 -50.73062 -43.66430 -33.72575 -44.51639 -49.92848 -49.25065 -61.55008 -62.05465 -65.25914 -69.80337 -67.98116 -76.11562 -80.77332 -83.51559 -97.63029 -101.17379 -101.95035 -103.13543 -110.68778 -115.18330 -112.59708 -118.99773 -119.69196 -116.97989 -122.26862 -135.70305 -138.39947 -148.82135 -215.97379 -316.74455 -483.84397 -578.61271 -855.82602 -900.85392 -1047.28964 -1066.87189 -1087.56963 -1117.35585 -1111.10980 -1107.88401 -1087.24459 -1074.38226 -1081.43466 -1100.62358 -1200.83985 -1279.57158 -1437.77469 -1548.60993 -1591.71483 -1690.11620 -1758.07066 -1749.38041 -1765.21796 -1884.19377 -1952.92620 -2001.74658 -2027.25789 -2033.08275 -2068.07068 -2068.38711
621.58808 628.38493 647.18807 393.50370 379.02012 346.97671 314.45215 264.86107 190.51475 113.37250 67.86189 70.40876 110.93360 130.25391 132.86890 125.53164 95.66983 73.12391 42.23943 23.90275 -25.13538 -47.05700 -52.69832 -57.52463 -37.51324 -19.27421 -26.84502 -46.36929 -36.19920 -51.30479 -56.26970 -49.29854 -44.66136 -35.04699 -43.51932 -53.91318 -48.69120 -53.22528 -54.73893 -70.34263 -60.61255 -70.27252 -80.11077 -85.96792 -89.09756 -94.26953 -106.72339 -95.87415 -92.79520 -100.76166 -103.64438 -118.93598 -113.51093 -115.29228 -112.41156 -114.13841 -141.27671 -141.54955 -140.20053 -196.63683 -308.30364 -332.35406 -372.63519 -534.99422 -705.42472 -811.69715 -1010.85729 -1023.70004 -1074.71303 -1087.70005 -1085.53497 -1077.61347 -1055.06408 -1076.47033 -1120.28254 -1198.98615 -1266.63227 -1360.28030 -1465.76678 -1498.73577 -1528.81184 -1580.43524 -1599.98429 -1706.98753 -1707.03867 -1813.38229 -1964.86406 -1964.50269 -2020.21728 -2018.51282 -2010.79088
775.64634 775.45889 679.13145 465.76322 397.77936 429.00119 392.25081 280.23827 240.50042 137.77645 48.88736 46.69614 61.49368 72.33766 84.61267 89.87534 84.32963 81.50515 83.95559 37.02082 -7.41257 -25.96280 -46.18651 -62.02008 -52.84816 -25.50373 -19.47838 -29.93240 -38.32378 -44.31934 -47.74206 -44.56695 -46.76576 -43.29461 -41.88739 -54.70383 -43.74679 -48.58323 -49.53676 -61.14716 -64.00203 -78.67379 -81.20929 -88.26468 -86.27229 -91.08868 -91.01528 -92.80491 -87.34061 -89.62035 -101.69271 -100.10781 -96.11253 -110.65880 -109.86254 -123.86887 -133.14187 -127.21130 -139.17893 -146.20346 -286.04174 -326.54259 -323.55824 -333.04384 -414.61758 -600.74409 -881.49864 -1014.19774 -1000.63978 -1035.16696 -1043.45978 -1055.00953 -1048.08055 -1071.30906 -1128.63123 -1227.15245 -1233.68894 -1310.57347 -1336.53636 -1341.59496 -1467.06558 -1559.47513 -1528.93201 -1585.87579 -1612.45652 -1682.93347 -1772.60566 -1865.26792 -1926.61179 -1940.80823 -1941.06736
838.46436 839.65596 766.31912 508.90863 477.76281 471.54521 410.33229 332.72794 255.52739 156.05591 67.58010 51.54394 52.98160 25.77922 12.80422 41.73235 67.89451 74.12810 77.79039 52.88030 3.64599 -13.71412 -42.69413 -59.49499 -38.30281 -23.36578 -8.57252 -17.95770 -21.62989 -28.90957 -32.15052 -41.53187 -47.97381 -38.66693 -47.25170 -53.16811 -56.05274 -53.28494 -60.24228 -62.85890 -72.61567 -80.67062 -89.94870 -84.89031 -87.58313 -90.61968 -89.02466 -89.33132 -83.67592 -91.10802 -97.10309 -103.36776 -100.57464 -107.05119 -112.37302 -119.07054 -129.41963 -127.47846 -147.24454 -139.33597 -213.82177 -233.14656 -273.71175 -265.56643 -412.53498 -460.83166 -514.22867 -788.97148 -877.36526 -802.40778 -914.21541 -1024.27627 -1041.25422 -1059.72625 -1103.85572 -1180.25747 -1188.45059 -1254.42204 -1237.22754 -1297.86925 -1328.59161 -1363.98438 -1377.82528 -1422.32952 -1463.31897 -1577.13215 -1614.00036 -1740.51540 -1869.81321 -1849.45523 -1847.17423
1069.55951 1066.50353 808.83427 578.04203 483.78912 543.40183 368.06052 298.01102 184.20898 147.67094 101.78673 95.29552 51.84323 18.73041 -13.95985 -2.23679 25.47918 44.61626 61.06676 48.04655 -16.21694 -27.50544 -55.69064 -51.45180 -21.88332 -2.97184 -1.35980 -19.68722 -16.98865 -25.97753 -25.63399 -40.41807 -41.66948 -49.44945 -55.35106 -62.04497 -68.49325 -60.43247 -66.63598 -75.77258 -81.61707 -77.40565 -74.24964 -74.40364 -79.36097 -91.53293 -85.74806 -86.46603 -91.23508 -97.74138 -99.48707 -105.81019 -104.11173 -105.51744 -116.76970 -113.52018 -125.88554 -129.22755 -128.61766 -137.12896 -142.69940 -188.97511 -193.04453 -186.09420 -243.12056 -230.78169 -369.02192 -444.90860 -481.49360 -541.29893 -759.95510 -1005.62921 -1026.61710 -1062.76589 -1092.80217 -1167.13595 -1198.55519 -1188.29835 -1201.91415 -1145.99298 -1082.15052 -1086.46701 -1193.04946 -1230.12026 -1333.66693 -1374.94081 -1534.03912 -1525.92911 -1740.69590 -1751.02217 -1752.82058
1097.00599 1094.74659 875.03721 635.97854 571.71417 503.42615 414.37549 237.85830 166.36876 120.68138 87.74299 85.04971 25.44103 23.77599 -8.97876 -26.97755 -13.88407 34.32045 56.47512 21.99096 -1.78180 -40.38053 -41.23456 -22.97542 9.11154 24.22219 2.82878 19.64543 -1.04701 -5.06775 -25.90798 -30.09625 -39.90262 -54.41682 -56.85744 -64.06298 -66.19677 -64.19739 -68.01545 -69.93892 -71.09517 -70.19881 -79.38460 -68.67090 -78.20534 -80.43579 -84.27873 -85.51624 -91.36876 -89.49890 -87.72311 -99.69446 -106.52439 -109.23640 -114.92243 -115.51445 -111.95912 -118.03967 -124.11266 -130.88132 -139.60467 -149.03300 -154.66735 -153.44723 -199.05272 -210.34485 -225.58416 -227.42846 -251.68495 -378.17050 -561.39958 -891.73843 -1020.27163 -1036.56433 -1099.93540 -1142.78676 -1191.55476 -1175.55077 -1145.57930 -1069.10004 -1067.88368 -1076.71041 -1072.51676 -1038.64387 -1148.25542 -1313.80373 -1369.11437 -1436.11397 -1543.41734 -1615.43768 -1615.07207
1146.41177 1144.41108 1195.68026 706.28250 695.19090 626.19256 513.29497 313.81611 200.39846 126.40369 73.27641 62.96675 57.90215 37.38768 -18.54331 -9.58174 -15.49800 11.44242 17.03883 0.87353 -23.31872 -34.92135 -21.37908 25.96113 42.08476 35.53216 29.42725 33.58233 11.15612 -13.22002 -21.29242 -33.19655 -43.34036 -48.80086 -52.54459 -63.45713 -57.89473 -62.42708 -52.99532 -57.13037 -59.71490 -61.64750 -59.64182 -67.86936 -81.81596 -82.15120 -79.28040 -83.50617 -90.44499 -91.64233 -86.22716 -93.58149 -100.85535 -109.77620 -108.99396 -107.97122 -120.17228 -113.59364 -122.29676 -129.70473 -135.89614 -142.89134 -141.81152 -153.79616 -164.70804 -185.89836 -185.06505 -216.64164 -212.25838 -377.26048 -428.97807 -704.31892 -967.87662 -1014.67801 -1093.66941 -1134.43968 -1127.11378 -1116.75889 -1065.32369 -1030.02776 -1021.06373 -985.88185 -976.72860 -1017.24956 -969.91636 -1097.73751 -1285.74477 -1302.11008 -1388.15505 -1456.51511 -1462.87401
1377.82131 1380.15452 1122.80779 838.59029 769.37052 728.12742 623.19996 409.16875 246.76810 164.13927 126.33074 114.57563 108.80211 92.10334 61.10504 -18.56597 -21.40282 -23.31362 -11.84494 -32.05767 -36.68491 -49.47326 3.00715 33.57436 52.68222 45.82626 46.19474 47.68366 21.55650 3.09364 -18.25751 -29.17832 -36.87715 -55.04550 -52.69379 -42.19352 -44.21750 -53.49009 -45.95140 -49.90360 -57.04414 -59.09240 -66.22937 -76.62629 -73.39920 -81.27033 -80.64067 -75.15118 -78.72819 -84.20489 -84.96744 -94.52960 -102.92112 -112.32098 -116.20515 -104.28841 -120.47596 -123.87691 -121.27450 -127.12011 -135.79632 -136.66813 -141.20695 -149.87075 -149.90632 -153.85689 -159.90657 -172.32300 -192.94386 -359.05654 -528.82512 -739.01508 -879.12551 -939.28005 -976.81780 -1035.88425 -1089.19229 -1067.59130 -1038.25028 -1013.36026 -970.04773 -933.58247 -900.97091 -905.63909 -894.68291 -908.98198 -1025.42480 -1128.96811 -1245.37616 -1320.35725 -1320.54783
1165.73097 1169.00511 1110.11020 912.46735 799.27424 748.79522 688.44485 506.42496 404.68575 257.62914 173.00438 195.92864 169.60978 145.96614 57.72026 16.44205 -2.93671 -18.18475 -28.79167 -37.80925 -47.17858 -47.88475 14.58784 50.35222 72.14465 74.29144 40.57107 35.69962 28.89141 -13.06760 -18.40225 -28.66523 -49.09504 -39.39236 -39.94214 -39.60056 -37.53777 -44.17979 -47.52252 -55.76582 -59.56091 -61.52311 -63.09850 -67.31808 -82.38633 -75.25860 -71.23386 -66.61755 -71.12071 -78.71762 -83.86194 -91.75674 -97.75069 -102.71766 -109.35487 -108.85787 -121.36336 -122.78664 -125.73838 -128.45382 -128.08764 -125.53596 -139.99190 -135.62325 -146.11153 -143.58273 -146.47136 -157.39493 -179.70639 -196.19694 -447.16048 -716.78319 -830.21956 -804.12560 -951.85921 -993.37942 -1018.16963 -1036.57350 -1033.19523 -968.85341 -947.48938 -917.49822 -908.50225 -819.63866 -788.68636 -821.27972 -864.38573 -985.71347 -1116.95679 -1210.37060 -1216.05107
882.64505 879.87820 951.70206 724.68161 699.80107 706.77243 633.82472 567.78614 362.40526 345.33032 265.85364 223.58010 221.11611 127.75872 81.41337 14.42426 17.84754 -8.05978 -10.14911 -27.95911 -37.24639 -1.87713 50.15838 92.91358 83.66789 81.91317 46.15223 15.16777 -12.63083 -28.53384 -29.21548 -39.46250 -33.22320 -24.99719 -26.69376 -36.69995 -41.43662 -37.46983 -43.67782 -57.43331 -63.60851 -66.32071 -64.51050 -67.28838 -64.58648 -71.32411 -70.69631 -69.62768 -74.25012 -81.96246 -81.84707 -96.21950 -87.76317 -92.77235 -104.78798 -106.12012 -110.56567 -113.41784 -118.65717 -118.94947 -119.09138 -127.79327 -138.49114 -141.28367 -142.43491 -145.39202 -142.70748 -151.43497 -164.57156 -184.37171 -455.23850 -592.47153 -743.29678 -795.77348 -857.11737 -920.92938 -958.35365 -960.20144 -987.47911 -961.42911 -906.65146 -852.92335 -817.31631 -725.58906 -734.98046 -756.61594 -828.24968 -858.87091 -1136.98337 -1131.34544 -1126.56544
845.09729 862.20993 730.02594 584.66716 582.94374 644.63834 598.97833 584.79900 463.76927 438.25238 398.02647 296.41750 300.42167 188.50602 61.42319 32.55368 54.48093 32.99220 7.95016 -19.93638 -25.16929 9.86387 59.16109 94.12943 102.11819 83.88849 40.95693 0.30738 -27.57152 -34.35594 -31.78691 -33.22178 -22.38479 -11.02942 -24.93806 -32.20347 -43.15065 -38.11566 -50.56573 -56.84274 -57.86486 -59.16798 -66.03873 -57.26512 -64.25908 -68.87594 -57.66025 -63.58123 -69.41796 -72.79680 -84.49381 -88.35667 -86.97789 -90.60475 -95.52113 -102.21681 -112.99839 -110.03805 -116.53442 -120.67193 -125.87682 -130.26088 -136.03091 -127.27086 -139.78846 -145.01122 -152.41323 -147.49766 -167.32314 -169.83819 -253.36783 -399.31228 -625.74684 -663.76305 -826.67991 -897.95157 -915.19854 -937.36878 -950.29715 -910.69005 -890.79078 -816.21466 -724.34821 -694.36244 -703.34342 -693.79647 -775.65524 -857.57132 -988.75190 -1068.38415 -1064.38840
744.66673 737.75021 670.77004 491.40823 482.81732 484.86264 481.77080 461.14487 482.38528 514.76403 476.29239 393.23474 286.43047 173.97299 86.16625 100.29120 95.21193 73.39240 64.68953 7.80633 18.70792 19.15232 36.42586 79.99361 91.98543 74.45128 35.94340 -14.20330 -9.64595 -19.07566 -21.98221 -22.09825 -18.48313 -4.36317 -19.11002 -25.47882 -45.27075 -46.16940 -46.25270 -47.20134 -49.93665 -52.73222 -61.48468 -56.91542 -60.82913 -59.17657 -66.77334 -71.06622 -67.02227 -74.42140 -84.60686 -88.44256 -89.97749 -94.47203 -94.76255 -101.86218 -101.31345 -104.27344 -116.40383 -113.78165 -124.74580 -126.20705 -129.58351 -133.26063 -135.33310 -140.51573 -134.82088 -149.49767 -153.58538 -158.07024 -192.61762 -312.61230 -353.13298 -352.09776 -626.63236 -794.91498 -821.99547 -932.45192 -931.31296 -888.19594 -849.94416 -723.50345 -694.46433 -672.40647 -665.23242 -676.94771 -737.86462 -864.06727 -940.93548 -997.77152 -996.97002
651.86209 650.06759 508.60787 372.14307 361.80777 369.76415 403.80985 403.84542 529.83154 567.03046 549.81021 455.10879 299.21198 237.01450 114.24972 123.41574 146.74412 87.67939 95.01685 87.59788 39.66820 34.15032 58.49948 67.00264 103.89584 88.40078 73.93616 27.74893 -10.34600 -21.16549 -12.55839 -4.34922 3.66896 11.00613 2.31319 -20.23122 -37.87169 -41.41067 -45.14118 -45.15011 -48.15130 -59.38404 -63.76067 -68.47264 -69.69220 -62.65626 -68.06435 -76.17697 -80.66661 -77.92945 -85.07373 -88.92962 -87.94615 -91.89124 -94.67842 -98.93388 -105.11914 -101.79234 -106.86620 -117.19281 -119.83084 -124.09073 -133.26941 -135.39632 -135.87000 -143.03750 -139.50340 -147.18542 -151.59267 -144.75221 -176.87420 -209.60720 -206.89302 -188.05456 -265.68273 -547.73193 -738.39540 -793.43248 -848.00001 -800.64745 -718.62864 -650.63765 -600.70678 -601.12797 -623.32575 -610.48059 -659.42479 -697.46802 -899.14839 -902.94282 -900.52790
586.47345 590.64777 469.20837 363.17376 276.11961 244.59907 276.04309 385.62651 471.28051 514.39368 505.36798 442.20387 309.28271 240.45060 179.07904 193.35207 189.23205 150.88517 116.17933 149.29066 112.26363 91.96292 112.06703 82.84092 147.34743 143.74976 120.26771 76.38343 23.84631 26.04213 28.50260 52.75236 56.15243 51.08330 14.94041 -4.06596 -27.10692 -28.46783 -34.03603 -41.03511 -56.29895 -68.28264 -66.09293 -80.11175 -76.95340 -69.92878 -70.08730 -83.74394 -83.29502 -84.39056 -77.80873 -83.54013 -87.40814 -91.84084 -93.94304 -100.80758 -102.90338 -109.26475 -113.45663 -113.17993 -123.41860 -125.64339 -130.52768 -122.96889 -133.94852 -139.38128 -132.20783 -139.03532 -145.55437 -144.11510 -147.01761 -181.14288 -190.37272 -178.00869 -255.17104 -313.17456 -561.18234 -681.18638 -699.06171 -732.40324 -652.00904 -597.65182 -533.05561 -532.60026 -539.18544 -535.85938 -572.40001 -618.25421 -732.46124 -794.67520 -792.35305
500.70837 506.66756 530.97882 309.31239 246.04973 225.32309 223.50188 308.35021 377.60181 406.39867 407.37430 404.53172 392.89501 285.87335 294.35528 276.90997 294.27930 216.77475 172.74472 174.14855 172.31473 113.75570 142.05296 187.47246 184.08522 138.57898 134.16954 84.16651 77.92265 77.48734 105.57100 112.30475 103.79464 64.77944 52.38775 -2.04056 -7.11570 -25.97060 -30.16516 -46.99749 -55.88846 -62.68616 -74.99847 -82.60184 -92.78634 -84.21004 -79.36813 -90.32617 -90.31917 -83.12729 -84.38632 -84.62660 -90.25352 -92.17834 -99.91739 -106.52838 -114.56038 -101.76758 -112.38137 -111.10289 -122.01726 -120.07613 -120.70856 -123.26392 -124.46382 -135.85550 -131.20548 -135.81430 -135.03394 -143.21180 -139.36180 -144.02707 -155.42628 -167.03378 -174.34394 -251.41659 -337.52004 -488.93329 -526.35567 -533.83967 -615.11979 -507.14858 -520.19940 -503.65477 -481.00318 -508.21407 -529.05405 -562.24581 -668.00220 -683.04144 -683.87887
499.58705 503.07717 451.08177 349.46848 247.27293 192.48106 173.22355 243.84208 269.65026 326.59898 382.55896 384.79796 391.05103 391.57619 356.76715 338.94566 328.95152 324.18367 271.09601 274.86268 200.07041 214.66425 227.37596 224.94143 199.85631 170.67017 124.75013 86.42713 76.07165 88.54792 137.53478 122.53617 94.52018 54.20371 14.71429 1.05458 -20.44871 -25.16219 -27.13344 -40.47519 -51.97754 -78.84289 -82.83142 -82.98686 -77.51039 -78.84276 -87.24714 -95.00734 -93.33806 -93.38870 -84.93485 -90.97284 -90.88008 -101.49105 -101.43769 -107.54830 -104.82496 -112.31397 -110.00678 -117.70009 -118.11437 -118.65772 -118.14168 -125.26171 -129.64273 -130.00622 -133.98243 -133.14714 -138.32667 -138.56374 -130.93401 -141.27336 -147.38270 -162.58215 -155.01458 -167.97673 -168.31676 -404.14889 -316.79308 -422.88979 -511.92372 -472.10613 -433.30835 -404.55337 -411.14105 -437.65607 -497.58925 -501.81500 -602.74395 -585.79982 -590.66823
484.83099 476.47565 437.60732 357.85515 273.24539 169.65091 137.65338 147.05597 203.30699 202.13905 257.60251 303.70015 389.01741 413.17379 370.55144 349.63290 326.17913 342.76189 309.27444 288.45839 273.34782 252.51532 239.42226 226.52019 164.17279 124.35564 88.58111 39.03093 43.07594 48.96874 77.27141 106.50265 53.03037 30.36186 1.78374 -14.14659 -32.24361 -38.27423 -42.62829 -43.77482 -55.97444 -76.08374 -81.28411 -75.45982 -73.19006 -78.19953 -84.24902 -95.33216 -100.95346 -97.70435 -100.96120 -94.61326 -106.21934 -105.53845 -100.91741 -103.15740 -117.81508 -118.51006 -114.89635 -116.38707 -120.53610 -119.47167 -120.64452 -126.79371 -121.79063 -123.39282 -127.48979 -122.73069 -132.46482 -134.14677 -137.91457 -146.79867 -144.65032 -147.35953 -158.70476 -155.04857 -159.78806 -169.39227 -177.23896 -269.91670 -241.89706 -347.59066 -352.72715 -387.62170 -374.89458 -419.35131 -437.81371 -467.68249 -518.93934 -528.33145 -521.76269
474.54116 465.94889 401.03088 305.33593 283.53880 127.67462 86.44472 108.43373 111.81740 177.22825 197.88924 223.37434 298.08181 339.96368 344.17608 320.07667 299.77301 311.04036 268.44197 292.62922 261.22282 284.11447 220.05336 180.93529 84.66292 62.59295 65.90657 45.22990 22.31707 28.06114 47.26672 34.85896 6.05214 -11.58100 -27.42404 -41.16416 -30.51581 -47.49404 -61.79033 -68.68823 -67.85827 -61.94075 -77.28579 -84.69227 -76.16111 -83.08800 -87.03652 -89.96241 -102.89228 -96.50080 -102.50198 -103.28447 -98.75608 -101.46864 -102.78637 -112.18611 -116.88230 -114.34639 -111.90176 -114.12805 -116.19399 -115.53586 -117.83165 -116.54961 -123.14297 -125.38727 -128.93927 -124.47332 -130.10890 -139.45430 -132.70542 -138.47839 -134.99812 -148.07809 -148.80584 -152.55082 -161.60482 -164.94675 -174.53797 -184.41120 -179.06182 -226.61447 -290.50542 -327.48403 -341.22221 -358.61434 -439.48956 -466.19461 -503.38308 -496.57639 -499.63308
491.77206 488.65432 409.09530 307.76604 212.96206 135.44824 83.18630 93.88904 51.79672 68.83826 144.47400 164.65825 207.86526 297.53637 279.62317 269.65795 283.88962 247.39347 230.56787 222.14952 268.90028 274.72932 229.21581 171.01254 103.99208 56.75739 67.09645 74.49229 64.09309 14.00766 12.23842 2.50840 1.63629 -28.91177 -47.83385 -40.78059 -36.65692 -53.07117 -58.51304 -67.54008 -69.74362 -64.67530 -62.97038 -61.62105 -69.35876 -80.61774 -79.78051 -89.34630 -96.16531 -96.41350 -95.20467 -100.45978 -102.36985 -104.32017 -109.64676 -113.96735 -113.98058 -117.52639 -114.89575 -116.12331 -111.53085 -119.33303 -115.67284 -125.40489 -118.50969 -119.55013 -127.69905 -129.82626 -137.55172 -132.67565 -139.53092 -133.23658 -140.17797 -138.47427 -147.73489 -151.22806 -151.34175 -161.44812 -171.25421 -175.42649 -178.52382 -199.14064 -213.02437 -266.20659 -275.69828 -343.13336 -412.88336 -479.41697 -499.45995 -534.64692 -537.86472
495.31345 491.60136 514.34322 264.71670 208.38258 149.83376 99.47388 97.00215 51.24780 46.84451 89.45199 132.58638 203.32290 215.51553 194.77628 231.18537 208.55568 173.63680 158.03744 172.70932 221.38861 292.29918 258.43155 220.42450 195.05133 122.59334 87.13956 96.62583 74.07111 42.48196 -16.06185 -5.70168 -21.55743 -20.13153 -35.78877 -25.84037 -28.55130 -38.05503 -53.22452 -57.94565 -54.86552 -45.83254 -53.38673 -53.22877 -68.01897 -64.75634 -74.87564 -82.31844 -86.52090 -93.68354 -96.10512 -97.91806 -107.29428 -111.27484 -116.00320 -107.64070 -115.15710 -110.95314 -120.63993 -110.94451 -119.94545 -121.78729 -121.55322 -124.62337 -126.43508 -124.40994 -125.73235 -126.29134 -132.97459 -135.86784 -129.97768 -133.71274 -134.62487 -143.76680 -135.53695 -150.03432 -149.09505 -152.79912 -155.30360 -167.08465 -171.73368 -166.48075 -198.81447 -207.86394 -256.88017 -323.57835 -392.32001 -485.06792 -555.82270 -644.71373 -646.29065
555.48129 553.27286 452.30751 310.78329 224.05993 187.99976 162.65841 162.56901 29.02202 25.11698 43.42444 84.53245 126.40511 123.83605 125.54624 154.31737 194.16015 145.67075 96.95547 136.41344 199.03368 262.52855 259.09452 262.83632 220.33416 223.25717 161.41668 146.61718 105.08465 48.57174 -5.68621 0.36552 -2.70606 -7.17197 -10.62098 -0.93940 -11.81617 -31.88636 -29.19336 -38.48814 -41.24616 -46.58458 -46.05743 -45.49143 -60.73846 -60.45290 -68.40089 -72.28190 -78.35935 -87.42678 -93.37358 -93.57797 -108.19015 -104.09530 -108.00161 -105.97552 -106.17218 -113.48167 -111.13218 -106.01983 -118.03836 -121.62035 -120.29134 -120.81998 -121.41703 -133.47229 -126.68420 -131.57619 -130.63921 -135.00802 -126.64039 -128.42148 -138.59866 -136.12672 -137.40846 -142.59443 -141.69851 -146.37234 -146.93231 -159.46376 -162.52258 -163.68254 -176.15483 -200.02658 -219.70311 -288.97433 -382.17852 -439.36818 -698.60707 -731.75244 -733.14039
567.50765 575.83719 460.69351 353.86157 296.14120 266.70836 254.70666 207.05259 141.76551 52.66580 10.62771 11.96073 84.34192 83.95691 116.19897 111.53010 81.63959 55.78527 75.45296 94.74209 148.06752 212.81999 235.33559 224.56530 232.02034 229.04820 189.24226 147.52153 118.04027 49.17160 21.79241 19.56547 11.89075 7.64908 19.36158 12.17495 7.24421 1.79343 -14.11723 -30.95948 -39.34594 -39.68494 -43.16235 -48.24881 -52.92590 -68.57616 -73.14030 -85.55838 -83.05339 -97.95181 -100.95064 -101.10393 -97.86676 -106.13156 -104.38776 -109.09456 -99.29526 -107.30537 -114.29117 -115.19236 -105.08851 -113.72321 -120.50160 -118.75738 -123.43811 -118.50398 -122.80360 -127.02981 -127.47734 -124.15393 -126.64364 -130.15518 -138.19328 -136.44022 -134.67243 -139.24578 -137.69586 -147.68344 -153.81332 -152.84624 -162.31566 -151.48790 -155.29984 -156.67752 -223.00727 -262.62589 -379.03140 -493.31910 -615.39459 -695.70874 -697.47673
525.06613 520.93074 569.12652 431.94905 425.92565 329.82047 282.37863 217.71241 156.00671 93.49282 51.28773 38.09022 48.61176 78.49428 109.32881 99.79019 51.90742 39.46449 72.48519 125.14157 159.07438 189.75917 166.35268 194.20578 236.51644 214.38973 180.47890 167.27963 129.70190 93.03530 34.44891 27.48747 32.06021 16.63234 24.47258 34.69291 22.38739 6.12948 -1.63036 -26.84430 -34.06091 -31.31175 -31.10165 -45.43459 -56.93280 -64.58105 -80.90983 -75.59564 -87.77807 -86.68418 -100.73768 -97.28454 -104.83012 -102.41097 -100.70027 -98.77560 -112.14756 -106.18144 -110.38204 -108.53445 -113.80694 -113.45950 -114.12354 -120.46374 -115.69324 -120.11324 -120.47679 -126.01705 -125.66833 -132.04904 -125.41714 -131.18157 -136.47857 -142.88993 -134.96187 -147.63878 -145.86177 -139.45267 -145.64809 -152.08776 -153.42556 -151.00902 -149.33808 -164.04013 -167.10067 -213.41662 -357.40631 -393.79447 -580.98603 -607.26155 -616.53210
638.24846 632.02001 661.27815 563.66901 510.55799 357.00944 335.57714 254.10821 174.16924 123.78263 97.63926 64.98015 38.72789 82.19252 82.63487 63.68631 36.55012 22.06673 51.55861 90.63597 133.39125 153.66583 159.83556 164.61854 202.64828 199.54037 193.81086 172.20727 138.04982 82.06736 40.04058 38.88334 33.39912 34.81542 34.48467 35.16409 20.63221 3.81507 -4.76564 -22.10460 -29.09733 -28.39295 -27.43170 -34.34910 -49.91203 -61.22701 -68.58714 -78.13569 -81.06772 -81.54062 -92.90555 -96.43826 -93.93266 -107.57170 -102.75963 -104.94924 -111.97274 -109.05945 -103.18068 -114.32167 -113.74044 -108.25501 -127.54150 -119.79974 -122.59886 -121.34203 -121.53254 -127.70794 -124.22416 -131.63316 -128.30889 -133.24963 -130.81238 -130.37745 -135.53408 -137.22424 -140.69257 -144.36075 -148.44372 -143.76357 -144.69353 -145.35572 -134.48427 -153.61371 -153.14889 -161.99790 -245.79280 -296.23710 -348.15027 -489.97331 -493.75212
772.18360 780.34525 689.44295 632.32526 551.88370 435.03970 339.54948 262.75681 168.13523 113.36790 98.90231 63.48741 32.86682 23.89502 26.09318 31.53518 -16.75170 -12.57265 -4.43053 58.89452 102.39864 83.39459 129.36964 157.57680 179.11351 170.06444 162.84624 156.83384 113.68294 93.36312 35.89417 34.53358 38.89587 28.39459 18.67782 -2.52564 -14.86240 -6.65879 -13.48331 -21.33029 -28.77369 -37.56685 -19.16533 -36.22525 -45.62467 -55.11550 -61.38373 -73.22394 -87.04547 -78.98401 -93.31919 -95.75310 -91.15520 -106.70009 -104.29678 -97.68164 -107.26350 -104.35873 -113.20681 -109.88251 -117.31041 -114.01302 -110.36429 -115.33646 -119.23171 -125.79526 -125.52899 -120.42889 -127.90936 -132.71275 -128.89713 -127.53893 -124.17781 -137.53554 -140.83277 -145.99439 -141.72972 -140.85730 -144.16274 -139.49804 -139.45074 -144.46099 -130.21835 -134.36165 -132.29254 -150.20866 -165.77279 -198.08097 -332.99155 -346.42496 -341.45028
733.35500 729.54368 709.71133 546.28361 550.37963 373.01618 331.73003 194.20049 134.86592 47.44707 50.79899 30.18547 8.82765 -2.73397 6.52715 -9.83808 -10.00286 -18.85427 -4.69821 -0.50027 10.68935 72.96054 81.89236 118.54072 151.10485 166.60452 148.50443 127.35763 77.25107 45.71491 22.93208 25.08410 10.66861 -1.08479 -10.23486 -12.76525 -15.91673 -13.28972 -32.07630 -22.97172 -37.24153 -31.38864 -25.16847 -26.13243 -39.00820 -42.97628 -61.37618 -68.71326 -79.25204 -94.05198 -96.69764 -97.11943 -98.24195 -105.20385 -96.49571 -106.47979 -106.05475 -110.89582 -107.77429 -110.35402 -116.07123 -116.81653 -117.88950 -118.39368 -119.11857 -116.23046 -123.21860 -129.10394 -118.18503 -136.97595 -134.69923 -127.81109 -137.01634 -131.99095 -138.26693 -133.95007 -140.36665 -137.54283 -139.91880 -141.56777 -126.00135 -122.08266 -130.77085 -115.56695 -131.89442 -144.53629 -154.57399 -162.70037 -222.63711 -179.27921 -179.61462
646.57570 646.64956 591.78775 492.03969 421.17727 361.48957 251.87050 166.29811 127.76297 80.03097 39.34353 25.99811 19.16816 26.48595 27.16732 26.08577 7.61399 -10.78467 -13.40934 -14.14498 3.06912 27.98837 70.67421 86.35689 114.62716 139.23170 140.08202 114.91508 65.09851 25.91453 21.77182 0.43147 3.52296 2.89700 3.65999 -14.28582 -11.36807 -27.65237 -32.80168 -29.26542 -36.44200 -30.55560 -25.66349 -29.62043 -30.04612 -34.39098 -55.21284 -65.63909 -73.68714 -83.00524 -79.35551 -87.65546 -95.64669 -104.05107 -103.81234 -100.07830 -112.75015 -111.29637 -112.29456 -110.43201 -111.69049 -122.64734 -120.15672 -117.67959 -121.49975 -130.22378 -114.01468 -128.37078 -130.30133 -131.16194 -124.91303 -129.14567 -134.35764 -137.83248 -132.51325 -135.26697 -132.57703 -135.10193 -133.08061 -131.69515 -125.56276 -117.66789 -111.47443 -111.72942 -113.88118 -130.27575 -151.03587 -153.37865 -159.16334 -163.11803 -160.16172
496.09308 492.19088 441.12802 415.42037 334.94462 284.67689 217.57749 218.62942 171.14172 154.76388 121.83630 62.80372 49.75453 70.24987 81.84463 41.71660 6.42453 3.04366 -18.16231 -20.73011 -15.30988 -6.28377 28.87484 43.06809 70.68805 83.05770 113.26152 96.00659 66.14493 19.42611 16.57369 10.35072 19.75664 33.45274 41.88549 36.43497 13.97870 -21.27580 -20.65989 -17.65255 -26.09043 -42.33380 -31.50410 -27.91721 -30.34665 -28.58375 -45.81889 -64.16061 -76.92828 -82.86784 -86.93694 -89.46679 -86.79895 -90.46723 -103.02851 -107.66332 -112.75502 -106.42046 -104.73152 -113.63131 -113.72461 -112.09651 -123.92750 -114.99650 -121.75509 -120.45218 -121.00350 -130.66758 -131.23994 -128.56855 -122.43185 -124.06108 -123.16803 -132.83829 -132.65880 -131.44093 -137.60860 -134.40023 -138.42532 -128.81976 -121.84738 -117.83135 -122.19210 -112.47002 -114.41157 -136.76005 -141.24993 -148.18835 -155.52305 -153.93093 -157.89404
367.06833 371.83422 414.48135 332.02830 334.91923 310.74191 287.56227 272.85769 269.67586 243.92167 200.89084 137.40537 150.28470 117.80721 119.06552 87.51161 37.12703 3.72161 -3.99294 -15.46214 -17.84609 -22.83616 -3.76193 28.73006 42.99040 60.84528 85.67562 86.27185 80.86323 51.84467 24.55476 22.68075 41.86083 64.97582 60.87757 37.28709 23.99499 13.43346 -10.19825 -24.00633 -28.55774 -41.02627 -46.26050 -37.59120 -24.28815 -29.19343 -37.34519 -42.99997 -69.59702 -68.31734 -80.17837 -86.06928 -83.04404 -97.97212 -104.47184 -102.46589 -110.00626 -115.88724 -116.53663 -106.58450 -110.06199 -111.90339 -117.19230 -119.82838 -124.02870 -114.74442 -123.12264 -121.47656 -127.55881 -123.35729 -123.08172 -123.36356 -123.33969 -128.29205 -134.60048 -128.56226 -129.33773 -124.22537 -131.57313 -130.37718 -117.52785 -122.12367 -112.97269 -105.79794 -108.81381 -112.85288 -129.29125 -142.01552 -152.18602 -150.18120 -153.69873
405.06198 403.89292 324.05484 307.33780 323.98163 336.16429 378.41303 346.39472 305.77238 242.69265 236.53772 248.41808 251.00876 226.56232 201.83335 124.69587 87.76623 38.75119 12.61914 -0.25709 -21.08220 -24.65610 -7.40021 1.20413 31.00320 67.95456 79.14581 92.14721 82.28525 62.62176 55.76960 40.79711 72.54710 79.76298 69.19181 43.87029 22.10390 10.83436 -0.49103 -22.60447 -35.08942 -46.55352 -43.65363 -33.85538 -17.92172 -28.09803 -23.93676 -39.00612 -53.48699 -69.41903 -63.38630 -74.69087 -84.92167 -95.58696 -95.53073 -101.54995 -105.18823 -109.60622 -109.59760 -99.69869 -111.68961 -108.19692 -113.53357 -108.87499 -107.31920 -112.08197 -118.84033 -115.02573 -119.51248 -119.84165 -129.07852 -125.74179 -121.17181 -124.55079 -129.82826 -128.29908 -128.96912 -128.65932 -128.64047 -122.28310 -115.50427 -117.94503 -116.40028 -109.88208 -107.66018 -110.06875 -127.69772 -129.01976 -139.67383 -142.95273 -135.78881
387.03471 381.27222 319.19354 294.58918 278.08189 319.38026 333.83612 339.63305 315.88665 305.89051 315.45702 279.32328 347.89952 295.87566 208.39502 175.80115 98.10144 41.05903 34.06771 -5.13770 -23.23502 -17.73429 -20.19838 8.02544 22.00785 55.10864 73.59843 73.05583 77.61884 70.74733 57.96468 61.37501 70.94276 81.08524 55.71729 32.15255 6.68359 -3.93029 -16.36469 -35.68412 -43.50270 -42.71806 -52.03527 -47.80972 -23.87049 -23.38235 -30.56557 -34.50427 -44.13283 -58.94048 -61.47885 -63.17520 -77.29181 -86.57084 -89.62725 -99.53034 -91.72950 -106.07700 -101.90329 -99.06979 -108.26391 -114.86012 -108.83331 -110.16469 -110.88523 -112.86677 -103.56499 -110.90006 -119.12787 -113.47989 -122.75241 -114.29907 -123.83421 -128.04606 -132.45781 -127.50029 -126.54692 -129.72475 -124.80659 -123.68150 -120.51526 -113.73960 -110.98206 -110.79588 -109.09209 -109.11752 -118.36263 -126.49562 -123.55975 -126.48452 -126.43475
306.38302 308.73947 318.66979 231.77239 237.15556 265.63309 272.14081 337.56489 338.88150 321.87373 315.43411 322.88956 316.29109 311.52669 269.48672 190.64940 153.18290 87.22532 58.12608 -8.85460 -24.04952 -19.44472 -32.29607 -11.75975 33.42106 49.67926 49.34107 51.07045 58.21180 58.02243 58.96318 64.67391 56.23017 56.59889 42.79550 19.95927 2.61185 -11.63348 -25.79333 -39.22748 -57.67030 -57.37200 -54.00856 -52.43050 -37.13227 -23.91884 -32.27904 -37.56991 -35.67406 -41.99068 -56.55516 -68.84358 -77.58097 -81.47257 -86.95024 -89.45867 -100.09830 -97.74374 -95.13972 -107.50953 -111.65452 -100.17658 -103.67255 -104.86021 -100.71619 -114.25420 -104.10192 -106.12622 -108.31733 -116.75922 -117.74024 -123.29293 -122.32029 -124.65910 -128.77891 -125.97381 -119.32921 -124.01692 -119.70452 -121.51121 -120.38921 -122.14131 -116.27415 -109.86519 -111.17896 -111.66725 -112.12603 -118.11102 -117.92534 -108.69237 -116.31563
274.63641 279.14913 239.77337 216.69192 229.41802 240.98482 258.44346 276.94734 308.21675 307.05851 310.26374 306.29540 308.25940 287.36690 286.62004 241.23138 156.50072 126.96344 72.86951 33.06926 -4.80228 -17.49381 -26.26964 -25.88928 6.47952 40.03559 31.32220 19.36735 19.74756 22.85933 48.00846 45.21720 49.21261 29.71806 -3.73026 -5.67705 -13.21433 -27.97671 -35.57771 -37.89348 -60.20539 -64.38352 -59.33005 -54.66163 -52.31014 -43.68773 -34.94062 -39.67680 -43.58773 -46.32523 -44.98111 -59.74717 -73.18813 -72.92601 -86.16048 -88.74188 -91.70898 -99.08948 -93.96411 -97.44106 -102.31512 -98.70383 -103.21459 -107.72226 -104.70818 -101.97238 -105.88414 -104.95265 -106.28382 -107.84498 -107.03572 -125.33986 -122.03678 -128.12703 -120.86585 -124.16531 -121.15344 -129.09793 -125.82855 -132.95666 -126.87352 -126.18578 -114.71219 -121.48845 -110.48005 -113.65037 -118.72055 -111.58364 -110.42477 -105.77517 -113.19672
268.38074 267.03283 234.22060 205.88050 228.14523 226.35877 208.86296 253.19339 280.53932 295.07283 283.77710 264.75934 278.58243 275.79510 303.42225 257.24022 201.31101 125.53605 101.73755 41.70279 12.87691 -11.46812 -16.80525 -24.33297 5.17141 10.20277 21.29931 -2.47480 0.38219 9.28406 11.46259 20.02899 18.57069 7.30328 -13.58673 -7.42983 -18.09775 -36.44858 -43.86741 -52.29299 -57.19742 -59.76814 -61.94540 -50.35553 -49.03711 -58.04046 -47.51190 -52.31490 -60.17820 -56.11678 -58.86239 -59.99163 -63.47667 -69.97084 -74.20866 -81.76693 -81.61240 -86.15820 -75.32217 -86.34952 -99.88090 -100.71687 -93.52644 -95.52169 -99.99010 -97.20339 -104.80714 -107.55407 -105.46360 -108.16862 -115.79726 -113.21992 -116.85413 -115.60386 -122.65078 -121.24152 -129.11397 -129.46724 -125.23623 -124.63887 -124.42955 -129.17291 -123.56809 -121.05123 -113.12104 -112.15275 -107.96987 -109.59450 -110.16171 -109.09324 -111.53088
241.50318 251.23859 216.59338 206.57267 227.02808 210.72240 206.54460 220.95457 256.88341 264.64161 248.07835 227.29160 237.34416 262.47087 298.87260 274.78412 211.54504 139.95397 110.20152 39.27386 11.79796 3.70747 -23.93792 -31.28252 -18.46221 -12.12250 -9.70187 -29.07142 -15.01728 -9.34292 -7.05720 -1.24428 -0.98502 -6.40608 -12.00649 -10.10335 -24.92665 -31.80692 -45.20503 -52.12398 -59.29458 -54.67438 -64.70522 -62.53001 -61.22049 -62.49709 -65.55470 -68.43305 -72.49373 -71.83908 -64.06064 -61.14348 -69.45438 -67.26905 -70.92312 -71.77679 -78.68235 -80.73192 -75.61155 -86.08196 -85.09106 -92.43756 -86.00404 -93.83893 -98.86881 -100.18276 -101.53725 -102.68789 -104.87918 -111.25035 -113.49056 -117.25939 -119.09700 -121.40732 -121.65784 -122.85258 -124.15326 -125.66124 -122.11278 -131.68430 -137.36902 -128.07422 -130.50650 -130.04840 -115.41347 -107.43793 -116.31200 -108.16050 -122.48261 -112.73677 -112.75571
250.69456 247.42609 216.46710 182.59178 190.47732 186.51292 194.35954 216.47120 227.20534 241.85540 218.96749 205.25199 197.35439 218.78403 253.18243 247.03614 229.63480 188.28296 142.51933 65.02588 40.47164 3.42518 -16.90211 -21.08771 -23.19045 -18.27796 -19.78347 -27.55740 -23.87267 -9.90069 -5.96109 -12.39111 -5.60473 -9.30734 -13.61141 -18.72203 -12.16463 -35.46293 -35.20918 -43.81851 -49.99725 -55.28595 -44.28159 -60.67691 -57.83583 -63.77980 -62.04928 -73.56079 -81.51579 -75.07851 -73.19005 -75.78850 -72.95107 -64.01397 -71.72875 -69.98426 -70.75190 -77.06728 -82.86241 -84.41301 -81.13755 -92.12841 -94.63816 -100.87924 -107.31108 -99.78437 -104.87193 -106.01261 -101.70567 -110.58970 -112.99416 -111.11395 -113.90377 -116.93831 -124.34260 -126.20318 -121.50694 -127.49237 -129.61196 -127.81124 -134.65319 -133.02588 -133.24473 -125.26834 -126.59675 -123.02304 -116.08953 -115.28629 -123.31971 -124.20272 -123.02672
258.79913 263.39705 253.19382 166.86181 157.75054 167.00578 179.60937 217.67741 239.46191 234.73711 231.49711 218.77139 193.59032 192.71458 212.62912 248.17320 227.84998 206.24831 166.10568 94.91486 -1.65610 -14.12996 -22.69948 -24.97105 -26.64669 -34.80079 -32.02815 -31.01501 -26.42810 -20.07889 -16.17661 -11.86333 -14.20306 -16.01714 -10.77870 -13.52238 -10.70099 -24.71508 -26.43188 -33.62323 -30.74642 -42.14716 -47.86934 -41.32808 -52.58175 -55.94874 -54.70968 -69.17503 -76.83015 -74.55928 -84.07845 -76.18446 -86.76354 -83.28423 -74.25717 -71.32349 -77.15023 -78.29485 -80.94430 -90.49819 -97.62616 -104.70813 -107.21383 -101.90171 -109.32300 -107.16372 -110.94914 -110.23951 -107.57244 -106.89426 -108.75405 -112.17038 -112.40525 -117.04465 -116.95866 -122.95004 -132.55763 -137.00694 -130.16418 -135.78054 -135.65224 -132.93876 -131.94357 -138.64129 -121.29400 -121.69324 -118.61487 -119.56734 -123.05086 -126.08253 -124.66272
252.94372 249.65811 225.45501 187.48858 175.01424 169.03935 186.04269 192.61203 234.63383 244.03094 248.77296 221.39071 184.34443 181.94660 191.37053 215.76275 217.64730 218.09587 165.74425 91.20957 8.75474 -2.82780 -16.78197 -23.90305 -23.16265 -23.43049 -21.81587 -31.67904 -33.16867 -27.36984 -22.53262 -29.92015 -22.91165 -19.40643 -23.26471 -13.77308 -8.15909 -17.35984 -17.58564 -16.40148 -21.31714 -32.51857 -37.49425 -45.48621 -51.07760 -46.01998 -41.47850 -46.66996 -57.75072 -70.43264 -73.57922 -76.43918 -89.74999 -95.71189 -88.82096 -97.75677 -86.01941 -91.23869 -86.59042 -106.81447 -101.64327 -108.60838 -106.90803 -105.53737 -108.52945 -110.51311 -114.83734 -113.30781 -103.55862 -98.01161 -115.44522 -117.91538 -115.48679 -114.89868 -116.66716 -127.62795 -127.95922 -133.71895 -134.86766 -136.41406 -143.29179 -134.33972 -131.36241 -137.14596 -131.02762 -133.16679 -128.10949 -123.82424 -138.11939 -136.56415 -143.90989
242.15290 245.76428 214.83688 182.96340 183.56379 157.87505 166.54708 200.34334 216.24428 236.36341 239.06858 211.04785 182.60992 170.62193 191.69576 187.99727 195.11688 164.21381 138.51556 81.49347 25.26627 1.39707 -0.78802 8.85529 7.20815 -8.33088 -13.78063 -29.95297 -28.02636 -29.12666 -27.89241 -18.93378 -18.15831 -22.62956 -16.82524 -10.98769 -11.52062 -12.17399 -12.36173 -15.28880 -8.57216 -24.77038 -28.32022 -29.58315 -40.65680 -35.54504 -46.81213 -58.18588 -60.70537 -67.13970 -70.26574 -63.75878 -74.77783 -90.16853 -86.44464 -95.98451 -93.65880 -96.85016 -91.69587 -97.36253 -107.01628 -98.09545 -102.30648 -98.26643 -94.42045 -102.49366 -107.82649 -115.44606 -106.45814 -105.96800 -114.55071 -115.34313 -116.35135 -127.43833 -121.76393 -135.82483 -133.10950 -138.79465 -139.33317 -139.43567 -139.74407 -138.97934 -132.28938 -138.99336 -142.76367 -143.96946 -135.32236 -134.11818 -139.19161 -149.93800 -148.01720
220.34315 228.19073 203.34435 184.01585 184.36585 166.42651 175.59192 178.49550 234.42145 223.53244 216.34344 165.34730 165.46757 176.76005 193.60274 213.38536 209.08352 196.86332 134.28660 66.17471 20.99295 16.97964 20.72095 29.92581 26.26927 25.05639 -8.52061 -13.96051 -24.29536 -14.69957 -22.89140 -23.00345 -28.09061 -18.43846 -25.51205 -24.74832 -17.56684 -13.06057 -13.32086 -15.84326 -8.20629 -22.89819 -23.96279 -33.46225 -37.96098 -40.94938 -43.40154 -47.04690 -54.74997 -57.21222 -57.26542 -69.47066 -69.28824 -71.19411 -76.57209 -91.45544 -87.87682 -95.50665 -91.93097 -90.08568 -90.71641 -86.37270 -93.51521 -96.39728 -92.99498 -109.88916 -120.22100 -118.08147 -113.90086 -112.24652 -115.95504 -115.37088 -121.44882 -123.94006 -125.51788 -132.19361 -136.47761 -134.29675 -141.43491 -142.46606 -151.59540 -143.62859 -147.08255 -146.61018 -141.82831 -148.86477 -149.14129 -151.90447 -154.05644 -152.71449 -154.36451
221.36104 221.75532 206.70750 183.67245 168.95957 169.21610 174.34927 182.88027 204.72212 210.36049 176.63331 166.57884 172.51104 176.46614 195.99821 225.70707 238.83399 210.13948 150.93292 98.18819 46.14469 47.58908 78.68004 72.45829 50.13118 26.22071 -5.37680 -2.47917 3.69963 -9.79639 -14.21458 -19.10532 -19.74906 -23.39387 -27.66492 -28.36444 -27.10377 -22.55181 -17.80775 -9.67358 -15.65724 -28.57072 -25.69906 -29.25993 -48.31429 -49.42419 -42.10773 -55.53885 -60.80731 -52.15464 -57.48420 -61.30354 -69.66611 -65.91718 -73.98338 -83.91943 -85.08905 -91.69380 -82.59482 -84.48833 -90.02264 -85.93191 -94.43795 -94.71944 -101.33186 -106.24494 -112.34013 -119.90287 -110.99948 -117.46216 -114.03162 -125.75344 -112.30229 -118.28474 -122.15959 -133.34222 -135.58870 -131.23987 -141.36874 -147.37436 -144.21981 -150.94784 -152.54904 -145.71051 -151.92542 -149.09483 -153.72127 -155.45313 -168.71145 -164.21110 -175.11413
214.30014 222.66428 201.23345 180.41672 174.14242 165.84225 157.34907 170.66015 197.56351 189.12567 175.85762 164.26306 159.01921 175.42868 206.30924 222.79664 255.63531 223.20944 175.80758 127.11208 99.86975 78.87646 104.84525 108.79219 61.83370 38.74672 27.04169 34.71933 33.14900 14.24748 2.01922 -17.39712 -25.87989 -22.89023 -32.67433 -34.41238 -36.10101 -29.02789 -36.81589 -24.69649 -18.93833 -23.34815 -30.79314 -40.48962 -55.87188 -60.23284 -64.53893 -59.53300 -61.25449 -66.36215 -62.95178 -65.49810 -76.43405 -74.50645 -70.94453 -78.49207 -71.52922 -87.23296 -81.59403 -78.69949 -93.16828 -99.90551 -89.93730 -90.85318 -96.36813 -103.03665 -120.09707 -120.49937 -125.73453 -121.06521 -126.45582 -120.49665 -135.08841 -131.66906 -135.62941 -130.36262 -142.52118 -132.34738 -138.87354 -147.18455 -152.83017 -154.21434 -154.45052 -150.60169 -155.36311 -161.46626 -167.40867 -164.02054 -180.97762 -192.61266 -192.14219
233.83526 235.62413 200.81137 176.62815 170.63655 159.11225 152.47619 154.31977 166.11817 160.92564 166.42502 157.82192 167.57636 163.62598 181.19656 190.91438 233.58216 214.92006 175.20004 176.50691 195.51429 174.47158 204.54703 159.47405 65.81238 70.74008 69.42699 82.25840 57.77762 36.40265 15.89900 -2.38321 -18.69979 -24.22768 -20.36791 -20.19631 -31.19178 -37.95307 -41.63098 -31.57376 -26.54782 -42.51292 -37.13497 -44.36327 -63.56273 -55.37851 -71.13416 -64.94199 -80.22744 -71.30576 -71.27101 -86.24205 -76.30319 -76.77546 -83.34549 -76.18399 -74.43076 -73.47218 -86.33132 -91.57017 -93.34265 -105.17464 -103.03923 -105.38085 -110.12825 -109.82780 -115.47037 -114.15537 -126.02508 -121.32931 -130.62434 -125.72818 -131.48094 -130.13128 -139.24431 -133.13831 -138.97762 -150.43872 -153.86059 -150.29396 -161.00663 -153.53928 -158.09296 -166.78566 -164.04900 -167.67762 -168.96666 -189.33333 -244.20123 -260.01040 -258.83057
250.04919 250.08168 203.32578 173.58302 175.05841 165.50979 163.24792 158.89754 154.66428 149.83508 158.82933 163.19565 167.80703 168.80490 177.50146 193.32944 206.52380 204.13112 170.48191 175.79326 208.96266 217.15014 208.06827 173.31902 131.74525 122.55637 114.01257 127.74374 89.37212 64.50045 41.95975 -7.17970 -2.89576 -19.52393 -2.13566 -3.88165 -23.50975 -40.80948 -46.37989 -36.07724 -50.07130 -52.40576 -46.85849 -54.68532 -61.15285 -62.10755 -70.27215 -60.49240 -82.12905 -78.63327 -80.39714 -71.08169 -76.24942 -78.75952 -88.91903 -81.78870 -86.22329 -91.52130 -88.90555 -91.51024 -97.69584 -103.47120 -100.28162 -102.61357 -107.11624 -103.58649 -113.62836 -112.83591 -122.80882 -129.73542 -126.20406 -129.11051 -130.57027 -127.44292 -136.49835 -149.69419 -147.53057 -143.76513 -147.04367 -139.25967 -156.63860 -151.32833 -158.32559 -158.25838 -160.83172 -173.53650 -201.90129 -237.88394 -289.98094 -329.33144 -318.73737
240.84706 238.61162 203.73291 202.64790 197.13192 185.22756 181.37476 170.40247 160.64764 161.88011 161.75320 166.57792 173.30458 166.51642 186.36099 185.35048 204.92430 213.03051 192.25901 209.92679 253.50728 264.02398 252.21240 242.04924 171.49565 163.07321 173.90618 175.35166 176.25825 107.17397 82.33761 42.68718 34.84787 63.41409 34.46434 29.04570 -4.05518 -0.17170 -22.87125 -25.53575 -10.45334 -44.24698 -40.64920 -49.75593 -66.03593 -48.15953 -41.74959 -50.91569 -47.99205 -60.65718 -67.37401 -66.74653 -68.82082 -82.68903 -80.87050 -83.83897 -83.06033 -90.31345 -93.56262 -94.77074 -98.59909 -92.74876 -91.80718 -104.32598 -104.47471 -106.83233 -116.17748 -123.41439 -118.36162 -125.12383 -125.60099 -133.60945 -135.92322 -136.99454 -139.27915 -144.91105 -149.26980 -151.19996 -152.02616 -155.28645 -150.51760 -155.98597 -164.69835 -166.51921 -163.61444 -171.73942 -233.62669 -289.22783 -348.76821 -376.62341 -380.17831
273.61768 272.09668 222.88694 236.04888 214.55869 205.63970 189.02846 162.30218 158.49900 159.66084 163.46861 161.22691 163.08825 172.75446 178.78753 186.78083 196.96394 229.77202 236.80525 245.42414 267.20403 275.24607 300.16994 260.16700 204.25300 205.72535 206.55382 213.01427 161.36448 154.53600 120.20561 96.26821 78.90034 60.15099 64.57928 40.75388 31.11853 19.88758 -10.47898 -17.12116 -17.39087 -25.52925 -30.41493 -65.72046 -32.17879 -29.99809 -38.70938 -38.07818 -52.04414 -52.88071 -63.23576 -62.62011 -65.90298 -72.03603 -75.77004 -88.63067 -83.58554 -77.96939 -82.59054 -102.41652 -92.96804 -93.29746 -96.25366 -108.49295 -107.43871 -116.98454 -121.17369 -119.99201 -114.78411 -119.06547 -127.15908 -127.88252 -137.52988 -134.50215 -145.09529 -143.03738 -152.81861 -156.66462 -164.04275 -161.68830 -163.65451 -161.17123 -170.28756 -169.34494 -178.86298 -169.30513 -186.82442 -363.12699 -399.75602 -404.12825 -410.25024
269.50297 281.19764 213.90010 230.39295 220.94521 208.99147 182.78309 164.47888 155.68969 152.88873 162.06115 163.93770 165.14425 174.03647 172.21035 180.81564 196.96982 229.32695 239.82082 234.26499 272.21458 279.90168 297.52732 259.19297 205.10515 206.47808 207.36213 210.98329 163.83886 157.09035 115.20661 96.19925 80.24804 56.68661 59.44601 47.93777 24.87098 5.91749 -19.58101 -18.24619 -9.91074 -21.50598 -27.60363 -67.80654 -31.47671 -31.37311 -31.58774 -36.44946 -47.63539 -53.95074 -61.94727 -64.91106 -72.73813 -68.84348 -66.15744 -75.07328 -97.86798 -81.57643 -81.38789 -97.32750 -82.34138 -83.52326 -92.94960 -95.63381 -100.12005 -116.02196 -111.08757 -116.43685 -125.28565 -119.50068 -125.98997 -130.46520 -135.40931 -138.26007 -135.66509 -144.27170 -146.73676 -154.05017 -161.32754 -165.33045 -166.44363 -169.38120 -162.94480 -172.89050 -171.80553 -172.98447 -190.44878 -357.87370 -394.01646 -406.10305 -412.30299
