24.24070 25.20792 25.65103 24.12966 27.35847 27.74017 23.61627 26.27767 25.12667 25.41515 25.29792 26.39114 24.81992 24.51415 27.24575 25.94190 27.06261 25.59029 24.65932 24.32719 27.03126 24.62407 26.40461 27.24556 26.53447 24.14571 26.22132 24.25948 25.45578 25.24455 25.39698 22.69480 25.04693 25.21122 23.87747 25.17508 25.48674 26.26238 25.03745 26.92070 24.60518 26.56571 24.56506 24.55544 25.89063 26.15776 24.46126 23.44283 25.30448 25.60102 25.04648 25.34848 22.24128 26.83291 24.44922 26.07059 25.88801 27.50330 27.11034 24.61458 24.93371 24.36682 25.93301 26.04050 24.30505 24.38836 24.47528 26.94581 24.44428 23.87779 25.44934 26.15552 26.98404 24.10957 28.04922 24.97709 25.57768 24.77714 23.33773 26.34511 25.35724 22.87017 25.74089 24.61161 25.05536 25.00114 24.64188 25.77172 25.23597 24.44066 25.66821 24.86306 23.36685 25.21261 25.82477 25.34739 24.88438 25.16574 24.94090 25.65990 26.43872 27.40831 25.22582 25.24357 23.84828 24.45780 25.95081 25.83576 25.31812 24.70730 26.64103 24.35072 23.65551 24.15415 25.72884 27.40320 27.41045 24.53012 24.16377 22.79914 25.20512 26.66129 24.66139
24.68930 26.48148 24.63442 25.92490 26.79772 24.58580 24.78189 23.40448 25.74693 26.24115 25.90004 23.40477 26.47812 24.63864 25.64110 25.01499 25.13782 25.68747 24.71036 26.07563 25.02599 28.43907 23.25391 24.84751 25.58932 23.86741 25.12233 25.13592 25.59634 25.82720 25.74529 24.68758 24.29399 26.42239 25.23188 25.55851 26.08262 26.33341 24.64537 24.95543 27.29150 25.80379 24.54904 25.15187 25.04932 26.62457 22.86233 24.74511 25.55872 25.21487 25.79369 25.02251 26.29619 24.69103 24.99516 26.72844 24.29257 24.30266 25.20461 25.26696 25.22376 25.07846 24.90221 25.02343 23.73589 24.94255 26.76019 25.82045 26.65294 24.25303 24.73619 25.56511 26.70277 24.76079 25.59704 24.85830 26.94788 23.74976 25.93697 23.95782 25.04298 24.44191 26.33156 26.24969 26.13895 23.68831 24.04242 25.12317 25.66583 25.84301 25.76913 25.74915 24.75411 25.00666 25.97935 25.12009 26.82698 25.34392 24.10594 22.88721 25.85493 23.90390 25.36446 25.10708 25.17044 24.98879 23.63938 24.50902 24.65389 26.50635 25.21000 26.23175 26.38083 25.92677 24.76319 26.77964 23.57351 26.34983 24.99014 24.73788 25.30015 25.86985 24.65343
25.00704 26.24696 25.58139 24.47772 25.83526 25.50801 26.17054 26.02203 26.20633 26.30243 25.28663 24.88409 27.15711 26.63049 24.49175 24.80299 25.96023 27.58124 25.89138 24.69319 24.00298 25.78862 25.38618 24.42654 25.60209 23.39505 24.72940 24.98544 23.92382 26.36554 27.35953 24.05507 24.91794 22.96180 26.04621 25.56419 25.29817 25.29520 23.69248 25.84816 25.41948 24.65605 26.01947 27.09461 25.82876 25.48081 26.44693 24.85023 25.08135 24.61371 25.09073 24.02141 26.39694 25.26090 25.45690 24.42564 25.94647 26.53730 23.25972 24.85889 26.53118 25.27908 26.13732 26.06853 25.29465 25.17899 24.88192 25.76900 24.16214 24.54260 24.74154 25.51138 24.46430 25.59205 25.44233 24.50313 26.50596 24.54758 25.14577 23.75853 25.60796 25.63152 23.86999 25.49123 26.15492 25.82266 26.24688 25.34787 27.14464 23.07540 24.31701 25.15469 25.35235 24.98586 24.72298 27.11736 23.68291 26.35254 24.63114 26.33101 22.84595 24.71438 25.20774 25.52515 24.71003 23.69560 26.00135 25.75991 25.70416 26.36954 26.18788 26.17071 25.18935 24.75858 25.23297 25.85425 24.01759 26.31558 24.13724 24.62017 26.13684 24.71688 25.39764
25.00742 23.49461 24.76362 24.00327 26.64592 24.23144 23.96601 25.67263 24.81137 24.98736 24.93747 24.80981 23.51408 24.73113 25.91110 25.92515 26.73549 26.43312 25.44067 25.06816 24.77425 26.18898 24.17013 24.78958 24.52702 24.71217 24.62231 25.26475 23.94010 25.14712 24.91359 25.01744 25.23761 24.11478 26.21316 25.62668 25.63048 23.70854 26.40152 24.52592 24.47708 22.40409 26.44994 23.69227 26.02540 26.23491 26.02340 24.15371 25.94857 25.28859 24.72942 26.53614 25.49808 26.08909 26.24450 26.58538 24.31426 24.65887 25.16438 25.92023 26.64599 23.02528 24.01591 26.07414 24.86303 25.42469 24.97138 24.95506 25.07223 26.54958 24.55430 26.42448 26.55396 26.04727 25.06740 25.83987 26.90531 26.49525 25.74426 25.80848 25.75538 26.55287 24.37159 24.97015 24.81375 25.04630 25.08776 24.68913 26.25756 24.54135 24.71872 23.66859 26.17855 23.64710 24.36405 24.12117 24.69889 26.22712 26.59454 25.65331 27.39354 26.02442 25.22430 24.99078 23.27052 24.98488 25.73996 24.49532 26.28998 26.71594 24.51268 25.97020 24.37444 23.78210 26.16888 25.91891 24.97121 25.74270 26.14332 27.89134 24.45831 25.98025 25.32941
22.75403 25.80985 26.23582 24.83997 25.26440 22.63664 24.22571 25.95812 24.71423 25.28290 24.78004 25.89566 27.09256 25.24858 25.97079 24.90033 23.66791 24.66496 23.80921 26.71076 24.55697 25.96251 25.02053 26.44750 26.01508 24.40214 27.64551 24.52010 25.77759 25.67664 26.63267 25.29559 24.38476 26.29760 23.55109 25.66269 25.33894 25.99890 24.67592 24.13683 23.83680 26.39678 25.05103 25.02220 23.48865 25.44618 26.48678 23.04368 23.89184 23.88875 28.26847 24.52753 25.58808 23.99259 25.87118 25.15791 23.89780 25.55618 24.92975 26.33296 25.55553 25.28111 25.09173 26.37766 26.95013 23.39592 25.78391 26.32876 24.05083 26.52276 25.50818 26.08898 25.38311 25.96556 25.25769 24.82050 26.22221 27.24750 25.11675 25.53394 25.31379 25.47007 24.07272 25.80358 25.06913 26.50398 25.35738 26.17497 25.04650 24.58325 24.98080 24.20307 26.50510 26.16274 25.25043 24.38769 25.23971 24.84256 24.31634 24.06491 24.95042 25.97588 26.62532 25.56098 26.56722 24.90599 24.56846 24.81266 25.63680 27.20559 22.21571 26.39454 26.24915 25.72271 25.70971 26.60664 23.52078 26.26775 24.74542 24.65597 25.76530 26.52356 23.96629
25.26374 26.48936 25.55039 25.51317 26.53867 26.33379 26.26144 26.09660 27.32833 24.50544 24.28520 26.55749 25.49139 25.34193 25.10988 26.22953 25.04635 25.76526 25.57097 25.77778 24.96909 26.32596 22.98942 27.34860 25.55727 25.89006 25.56804 25.21315 26.04575 23.94751 25.23370 26.48499 23.59719 26.79033 24.07574 23.32701 24.53111 24.60092 24.79296 23.76745 27.15890 25.09465 26.73994 24.63177 25.10822 25.49709 24.57180 24.83837 25.19064 27.06796 25.57877 24.65290 23.21339 24.03428 24.78792 25.57472 25.90914 25.54773 27.49553 23.76476 26.23025 24.19368 27.15672 23.38618 25.87128 25.67667 27.17256 25.08040 26.93666 24.17993 26.28274 27.30157 27.37612 26.34061 25.43760 24.11478 24.02543 26.26721 25.65992 25.53815 24.26943 25.12571 24.41580 27.16245 23.67302 26.31378 24.01084 26.11167 24.49558 24.05070 23.40183 24.17364 26.60385 24.35838 24.87102 25.20718 24.95685 27.14578 25.82751 26.01362 25.19499 25.73476 23.90846 24.21482 25.56257 24.69084 25.88546 26.37978 25.72638 24.77546 23.14353 24.66133 24.49112 24.30197 24.55317 24.70172 25.70588 26.02688 25.20354 24.11290 26.98507 25.40838 25.09424
24.41565 25.46284 24.93401 24.47533 26.80964 25.06728 25.47590 26.56949 23.01443 24.31423 25.96558 24.64546 26.21940 26.00677 25.29266 27.85998 26.25000 25.66708 27.17264 25.05416 25.02712 24.68578 24.70625 23.95979 24.97982 25.05481 22.40510 26.43028 24.04944 26.86770 26.60362 24.18502 24.72664 24.65760 26.25199 25.68111 27.62026 27.70938 25.85150 25.16432 24.79712 24.25829 22.87552 25.41665 25.59400 26.15177 24.79559 25.29956 24.24161 26.64833 26.10721 25.72036 25.80267 25.90605 27.10168 25.60609 25.24403 24.19456 25.35026 27.72212 25.90841 28.29801 26.04242 23.80572 27.23601 25.90319 25.74712 26.69771 25.52646 25.68843 25.52512 26.08192 26.31704 25.39284 26.92351 26.29556 25.00526 26.76747 25.85717 25.59070 26.12972 24.68362 27.74409 25.60230 26.16271 26.11826 24.07625 24.08509 24.55736 24.60060 23.99566 24.43124 24.94438 25.43710 25.76363 26.40969 25.11579 25.69853 23.66093 26.15913 26.53341 25.12178 25.57117 25.84626 24.28315 24.76430 26.25060 24.05192 26.05920 25.79761 24.86480 25.45938 25.09930 26.25455 24.51028 25.04925 24.09680 25.68006 26.50672 24.32715 22.68961 25.01582 26.64563
25.97408 26.01971 24.08886 25.59665 27.11421 27.23521 25.94360 28.53424 25.18666 25.35677 27.54411 25.31973 27.35516 23.73265 25.23305 23.76171 25.83959 25.43826 26.16555 24.96470 24.35877 24.57347 25.28203 26.47794 23.62902 23.70224 26.75407 25.76804 26.91691 24.66119 25.05929 25.29283 23.68705 25.06951 26.21447 24.81116 25.45528 25.65419 24.10395 26.34585 25.10456 23.74850 24.91521 25.38539 25.55593 26.77154 26.04844 26.64641 23.45850 23.89595 25.66792 25.61221 24.84086 25.94584 26.10950 25.63484 24.96446 27.32045 24.22438 27.11413 24.64244 26.04379 25.29650 22.43464 24.04106 25.06425 27.40763 25.10608 25.80292 26.18053 25.89495 25.12164 25.68204 25.17857 26.21574 25.91286 26.58376 26.10954 25.76065 24.63823 24.75248 24.57433 24.84624 26.16751 27.03612 25.32078 24.15284 24.84091 25.69678 22.65957 24.60975 25.66013 23.72144 22.13174 27.72786 25.93309 25.87825 25.05269 26.09778 25.50281 23.17356 24.36635 25.94424 24.04853 23.94384 23.16671 26.03939 23.53809 24.32463 25.90843 23.96594 25.05274 26.33226 26.94080 23.80505 26.78185 24.88289 24.23028 26.69357 25.05017 23.20539 25.23848 24.17509
26.09096 24.41665 25.75865 22.87881 26.16726 26.24564 26.51782 25.55521 24.33859 25.20852 25.57884 24.74526 24.85464 23.66631 25.32713 24.64280 25.10254 25.95921 24.46020 26.18356 26.87092 25.37401 24.18166 24.74452 26.07802 23.27161 24.78964 26.52261 25.45269 25.90113 25.49470 26.02968 25.76088 25.43901 25.22543 28.14449 25.88359 26.67443 24.47520 27.72954 24.92417 25.09855 24.79880 25.57062 26.73054 26.55840 26.60345 25.08530 25.62258 25.84779 26.04896 23.32078 26.20089 24.18285 26.20625 24.26302 25.01724 28.03998 25.90665 27.33322 25.81380 26.83216 26.74152 25.12367 25.78538 24.48129 24.86855 27.07957 25.98171 26.01935 26.53360 26.75795 25.14397 24.14583 25.23444 25.00628 26.55855 26.36983 26.71301 26.93886 26.42330 24.49898 26.55468 27.18315 26.47402 25.02548 25.32751 27.33280 25.76216 25.46566 24.17252 24.92070 24.98439 25.81282 26.35353 25.98217 24.57071 24.60812 25.66093 25.72482 25.88527 25.25708 26.48776 23.95183 26.15140 25.88671 25.12955 26.92985 24.35073 27.28753 26.82922 24.89310 26.50681 25.24636 25.02099 24.88560 25.68888 26.97668 23.99205 25.84966 25.98143 27.03986 27.27113
24.23863 24.43070 23.68159 25.49599 23.92442 24.78405 25.34005 25.72851 24.71557 25.11287 25.35058 25.32212 26.08986 26.45267 25.47131 26.24332 25.48635 25.33285 25.91889 25.20433 23.97205 26.41628 24.50583 26.33369 27.14928 27.30157 23.80116 24.26460 25.03109 24.99682 25.51927 24.63457 24.41515 25.65627 24.42628 25.76625 26.14441 26.80151 24.62543 25.61394 25.49126 26.23532 25.62761 26.20369 25.48601 26.18197 26.47808 25.58572 25.20811 25.86195 24.93151 24.56199 27.17612 24.74617 25.33096 24.52726 26.28524 26.67678 25.55814 26.91250 24.24214 25.08353 25.12732 25.46211 26.72465 26.36557 24.84603 24.74834 27.67672 26.51418 24.89508 24.98391 24.20386 25.94753 23.86745 25.54047 28.09858 27.03518 24.68716 25.86881 25.56311 25.44234 26.59716 27.33403 26.93774 25.77990 27.30294 26.88108 26.45522 25.59483 25.30923 26.08029 24.82243 25.26672 25.06610 25.46225 24.51177 25.53649 25.78927 26.65937 26.00923 24.90514 25.04030 27.34330 25.15251 25.72647 24.38913 26.00877 24.03005 24.04048 26.01110 24.35474 24.59984 24.98931 25.17128 25.54872 26.41839 26.55583 25.80374 25.13503 23.16024 22.76119 24.99600
23.26901 23.88261 25.24612 25.60147 25.18844 25.83471 25.84072 26.96631 25.56356 25.78329 23.55922 24.91983 24.73884 24.93481 22.36806 24.97338 24.40414 26.20858 26.41257 25.62202 24.22435 25.85004 24.35631 25.65770 24.55942 24.43812 24.86552 28.43743 24.23348 25.05345 23.45280 24.26976 25.13305 25.89356 25.77963 25.32951 27.22515 27.37706 26.80037 23.11932 25.59637 26.63069 25.43936 26.99437 26.38657 24.75601 26.37205 28.00282 27.19643 26.65948 26.17804 26.42070 27.24874 28.14596 26.54136 26.92264 25.21008 27.39839 26.98338 27.87010 24.94547 24.61215 26.16515 27.09036 27.35824 29.06371 27.31101 28.91330 28.23696 25.48135 26.26779 25.94895 26.05059 24.31200 27.10953 26.88423 27.45988 27.17627 25.14458 27.96308 26.88564 27.34011 25.14999 23.52978 25.25785 24.34751 25.17775 27.32040 24.00983 24.59871 26.16659 25.35758 24.61914 25.11158 24.98933 24.77805 25.61076 25.64102 26.24324 24.65884 25.68234 24.78758 23.11213 26.69985 22.64599 25.52397 24.99177 25.74262 26.51734 25.39294 24.59096 25.92706 25.30473 26.20086 26.37610 25.40140 24.03486 26.33686 24.09337 23.36380 25.45364 24.36278 26.11508
26.68875 25.74105 25.26525 26.44955 22.92578 25.04876 23.73298 24.15481 23.83836 24.83743 25.46504 26.95373 27.35780 26.09494 28.95547 26.57715 25.62101 23.57767 23.84087 24.48919 25.58410 24.65729 25.17379 25.57185 24.12699 26.13241 25.23168 24.36063 26.03093 24.98844 25.80798 24.20287 25.31778 24.71100 24.13244 24.51976 24.48226 26.76833 26.83857 25.31572 27.14249 27.48455 25.98221 27.92146 27.12125 25.11728 28.12289 26.25789 26.04225 25.82519 26.44932 25.73623 27.22086 25.44889 24.57349 27.11691 28.24794 28.00028 26.46725 27.23205 27.23998 25.76658 27.55376 26.55049 29.39219 29.23893 28.61640 29.26565 29.39142 26.07151 27.25745 23.95438 25.74221 26.31583 27.94829 28.17230 27.88914 27.50044 26.61278 29.37944 26.29134 27.47422 25.69963 23.57103 28.98561 25.31398 28.18188 25.47599 25.06782 23.59709 25.83631 27.49085 23.34716 24.58480 25.79754 26.40445 23.86784 23.69957 22.74959 25.14109 25.75566 24.93038 25.31972 25.38028 27.29492 25.86169 25.89607 23.55588 25.01840 25.37521 28.06690 24.55928 25.85125 23.46111 25.38347 25.19087 25.85140 24.61688 25.62843 27.01403 24.96537 25.00101 24.99520
23.56079 24.83766 24.27593 27.00776 25.69597 24.97711 25.28499 24.69862 24.46638 25.69430 25.16922 25.50502 25.05548 24.66786 25.92570 24.76271 25.77428 24.43825 23.43889 25.92615 25.30786 26.44975 26.11126 24.31502 24.96682 26.76158 25.17263 25.11269 23.50923 25.59539 25.77544 25.28976 26.39872 25.79454 24.74013 24.97538 25.72371 27.00604 25.86301 25.71192 26.63488 26.43261 24.57432 25.25922 26.37249 26.89376 28.41090 27.70461 26.80884 26.22017 27.19028 27.85469 28.80340 29.11835 28.48681 26.38824 25.86667 28.36059 28.20930 27.24156 28.19815 27.43601 26.21366 27.64918 28.50636 30.86608 30.90444 30.18323 27.86919 26.18143 27.99181 26.14301 24.86456 25.88532 26.70615 29.77246 29.44453 27.83700 28.91215 26.81466 27.56652 25.57374 25.82068 26.38769 26.30292 27.67658 25.92873 26.18020 24.59333 25.96634 24.34510 25.01710 23.76240 27.18952 24.94753 25.33300 24.22697 25.36214 28.30387 24.05553 24.21046 26.12717 26.83021 26.66886 23.76918 24.89380 26.41380 25.28735 26.21635 25.03624 26.24049 23.88965 27.12422 23.65725 25.87014 25.43093 26.12540 25.37361 25.08477 25.45080 26.03086 23.71020 26.15714
25.96954 24.08677 24.96994 25.18800 25.02392 26.59031 25.88033 25.74597 26.41521 24.97551 26.19340 26.32403 25.39527 24.74116 25.10677 26.00902 26.34653 24.81428 23.96604 25.02692 25.28025 26.01732 25.56873 25.22167 24.05082 24.86689 23.75798 24.45000 26.45706 24.31636 23.51716 25.56962 25.14109 24.89100 24.91803 24.70831 24.89996 28.28675 26.90829 26.58486 27.17518 25.35467 25.42487 26.53758 28.00448 28.33009 28.95333 25.46236 27.15183 28.01274 27.76401 28.58320 29.82191 28.95399 26.98367 25.84804 26.01252 26.82323 29.05245 28.60845 26.57399 26.87081 26.05619 29.18124 33.66488 30.65100 32.84124 29.80873 26.56015 26.69581 26.70844 26.89472 26.57072 26.19452 28.81774 27.59365 29.05580 29.90679 27.66664 27.62562 26.07431 25.87658 25.90223 27.31376 26.58944 27.44688 26.81618 26.28654 26.08069 25.40825 25.14273 24.59476 25.83277 25.52750 26.03187 26.22987 26.70677 24.04382 26.60240 24.34157 24.88997 24.61583 26.08914 24.50128 25.64072 25.10078 23.80107 26.39384 24.78364 23.93656 25.12167 26.33059 25.48268 24.69724 24.59916 26.41461 26.19925 26.26289 25.23588 23.53418 21.81848 25.51526 24.43199
25.45300 23.83423 23.49338 23.77481 23.81650 25.95500 24.87972 26.24659 25.65590 26.17648 24.76254 26.37572 24.91919 25.04205 25.22661 24.85644 24.52953 24.32978 25.35086 24.35031 25.89395 26.46784 23.93905 26.71067 25.25929 25.25809 26.45646 25.51877 25.37058 25.86868 24.62726 24.00112 26.96524 25.50298 24.12407 24.85527 26.32108 27.27923 27.39511 26.95964 28.86124 25.36835 25.85160 25.30351 24.96190 26.34911 27.53785 27.95321 28.49934 27.85339 29.14170 29.14544 28.71463 28.48595 28.54213 25.80501 26.63132 26.56690 28.87106 29.04517 28.70598 27.47650 28.49303 30.80202 32.98005 34.30603 33.70026 32.16139 29.20919 27.76840 27.37566 24.93566 24.41595 25.56741 28.81935 30.35148 30.33227 31.75276 30.11408 29.02933 26.00943 26.71265 28.13266 28.85094 28.05126 28.63328 26.90032 26.23752 23.72594 24.59253 25.04447 23.93747 24.62081 27.05324 25.66208 25.16611 25.88987 24.10723 25.34017 25.73049 26.15554 23.92016 24.76297 25.58135 25.50453 24.27010 24.93107 25.26958 27.28653 22.56283 26.72939 25.09715 24.15519 25.97033 25.58774 24.96283 25.38594 24.01171 25.98031 26.33156 25.36509 26.54296 24.88908
25.05711 22.64197 26.76794 22.64719 24.19590 25.87844 26.33053 24.78455 23.53703 25.60623 24.09757 25.91883 25.61320 26.41311 23.97365 24.19251 25.58685 26.77414 24.27727 25.81308 24.55019 27.08313 25.86895 25.36170 25.39314 24.15608 26.40121 25.36552 26.42822 26.06108 23.23917 26.62939 25.81882 23.32873 24.91047 25.86331 25.90160 27.30059 28.45233 28.39625 28.12885 26.80830 26.42452 25.90609 28.41125 29.06424 29.50013 29.36401 30.99208 29.17682 27.64532 29.72273 32.31666 31.50023 26.85723 27.72817 26.06412 26.34766 28.81646 29.31917 29.43100 27.65578 28.99657 33.47987 36.58460 37.26925 36.17624 33.72253 28.70931 26.86650 25.49866 25.27826 25.49052 27.84119 27.93392 30.98243 31.68390 30.22490 29.20601 28.33204 26.56692 26.52260 30.19141 28.32445 30.49274 28.75377 26.66274 25.19494 26.91042 26.09429 26.67638 26.90635 25.84401 26.02417 24.65771 26.14706 24.79605 24.40214 26.56358 25.61439 26.66192 23.75762 24.79869 24.18089 26.87910 24.89597 24.52801 24.93023 25.50390 25.61395 24.52274 24.38835 25.38431 24.23267 26.08474 25.29826 25.14242 24.81555 26.62597 25.70054 24.51905 23.81027 25.17726
26.34395 25.76179 24.19876 24.40526 26.45205 24.23559 24.16873 25.20601 26.72907 26.45264 26.74392 26.48681 25.77652 24.39150 24.27298 24.75901 25.97019 24.26393 27.44737 24.49367 24.78625 25.04080 24.39307 23.69698 26.22577 24.48549 23.61041 25.14462 23.94817 23.72973 26.10724 25.74212 24.68543 24.49448 25.17214 26.97993 27.03681 29.00463 29.17822 29.22199 29.80369 26.86731 25.36213 25.62477 26.36711 29.16139 32.12907 31.82607 32.73748 29.91841 28.48580 29.33273 32.04263 32.52001 29.72546 27.92790 26.54518 28.75030 33.10021 31.85478 30.96707 31.76843 33.07392 35.21567 37.30356 39.09347 35.88557 30.84459 29.05367 27.66925 26.77377 28.05576 24.80937 28.03471 28.38118 31.80769 31.05669 32.82389 30.42888 29.12959 25.10617 27.99580 28.98577 28.96560 31.60098 27.12967 27.94858 27.54317 25.49985 29.17873 27.20696 25.70837 27.45057 25.33897 24.84937 25.07365 23.78211 23.40330 26.18775 25.82227 23.72492 26.78129 23.53360 26.59226 26.52346 24.22309 23.18661 25.11139 24.31724 25.70720 28.65527 25.19699 25.52871 25.61669 24.33664 25.57784 26.25471 24.06289 24.73086 23.14309 25.32669 23.58416 25.50251
25.29986 23.88210 26.28438 26.02298 26.55251 24.73279 26.55604 24.72352 25.58554 25.80528 25.11898 25.66446 26.26433 23.27902 26.76415 25.84915 26.69200 24.08219 24.30748 25.72709 25.64183 24.08647 25.95086 24.80040 25.63292 27.13507 26.17998 23.10320 24.36884 24.24438 25.35580 25.08491 25.15041 26.14681 26.53780 26.78228 26.98802 27.35879 30.46121 29.71155 30.34233 27.54391 26.38957 27.27451 27.09880 30.40354 31.66203 34.42793 35.39936 33.18179 31.20976 30.59146 33.74740 32.78249 30.51716 27.80794 27.18553 30.71719 32.33323 32.35507 32.61289 30.24098 32.73204 35.28239 39.07177 39.09194 34.47907 30.08665 28.77236 26.70927 29.57506 28.01920 27.35578 28.02522 26.44097 28.72276 31.80439 32.56612 31.68550 28.24303 29.82443 30.28717 31.64014 33.18605 31.40794 30.63114 27.17446 28.62804 25.18221 26.36949 24.75012 25.65081 24.30665 25.46686 25.55493 25.94900 24.75758 27.55134 25.00114 26.64440 25.31274 24.64539 24.14086 25.45131 24.89981 25.18951 25.49736 26.86948 24.28171 24.71339 27.37553 26.59682 28.27040 24.75227 25.97180 23.54252 23.23340 25.25347 23.67134 25.42119 24.89569 26.30092 24.59523
25.73313 25.47630 27.22733 24.92653 25.03849 25.13823 25.51406 25.85053 27.84650 25.33949 25.18060 24.73115 25.71432 24.72230 24.58198 25.95388 26.61101 27.28803 25.31881 25.73598 25.75588 27.10336 24.47038 24.19600 24.31776 24.99512 23.50632 24.61023 26.94817 25.49944 25.07797 26.07763 25.86389 25.40332 25.80902 24.95281 27.66303 28.08669 29.17704 30.68878 28.98410 29.22283 25.94457 26.99129 26.45956 29.30194 33.13167 36.21044 38.14454 36.21034 34.40747 36.77775 34.87614 33.23826 30.04857 27.02516 29.15459 30.02542 35.49326 35.94464 33.33391 32.93064 33.65845 35.85005 40.44102 39.25589 36.36362 29.83193 27.82566 26.56805 26.67567 30.01894 27.70793 27.45271 29.19671 30.19267 31.28895 32.90509 32.68527 29.97473 30.43975 32.78814 32.94303 34.10958 31.65576 30.01911 27.38061 26.40577 28.19075 27.18516 26.24700 24.89629 25.19250 25.24674 25.59036 25.18740 26.16672 26.24138 24.39447 23.93920 26.99945 25.87169 27.31987 25.72898 25.77480 25.03659 24.88877 26.10905 26.83642 25.96045 22.97759 23.66054 26.84187 24.41315 23.53495 25.86466 26.21508 25.10517 25.52905 25.20435 25.07491 25.05237 25.74488
25.25524 25.18944 24.15765 24.20959 24.93159 24.60042 23.81688 25.43966 24.19141 26.16279 25.63767 25.26238 24.49102 25.82551 25.13306 26.62445 23.87739 23.69517 23.46032 23.32262 24.01429 24.04475 25.09364 26.50068 26.69665 25.95884 25.82958 24.29838 26.22295 25.13336 26.08974 26.44444 24.73607 27.03759 26.74484 27.49228 29.44060 28.88632 28.67667 29.68687 30.20390 28.31004 27.69007 25.26124 28.73156 31.33249 33.58308 39.95234 38.19152 39.87474 38.33794 37.37833 36.91966 34.42825 31.84123 28.68587 31.93504 33.05546 38.16296 39.04525 33.62834 33.63447 31.65262 38.06604 40.28422 38.32173 34.52959 30.87727 26.92429 28.68567 30.12194 28.81785 28.95265 30.26437 28.54456 31.85774 32.80286 32.49423 32.95643 32.25254 32.52589 36.13117 34.73970 38.02172 31.88496 29.63852 28.10330 27.64466 28.09252 28.59571 23.97537 25.96605 26.12604 26.03518 24.58031 25.46714 28.23134 27.09269 25.60645 25.33597 24.58839 25.86750 25.91439 24.88754 26.07210 26.24180 25.33271 26.76026 25.23878 24.64726 24.27237 23.82658 24.93075 24.05578 25.57296 25.03898 24.71494 25.23643 25.35986 27.18796 25.50593 24.74077 25.02407
25.86160 25.67646 26.47949 25.97171 24.07684 23.77015 25.90214 24.70963 24.08012 24.38809 26.55456 25.36970 24.79601 24.08072 24.26842 24.95054 26.07241 25.67435 24.45471 24.57454 25.48648 25.45355 25.63624 24.89328 25.68051 26.00752 26.31781 23.51578 26.51932 27.84844 26.73920 28.02672 27.10778 26.12796 26.01776 28.38783 28.19514 29.31520 32.32785 33.04417 31.41822 30.04221 26.68742 27.05249 27.06247 30.37078 33.99348 39.96885 42.27891 44.23967 43.54454 39.69137 39.12932 32.60211 31.93582 28.70236 30.46640 37.20442 38.79621 40.23018 38.02387 36.55124 35.74373 40.09526 41.47254 37.20398 33.50725 31.33557 28.54568 28.95841 30.81459 30.59934 29.65520 28.35142 29.85849 30.87305 33.91054 36.74021 33.47347 35.23797 36.69176 39.73836 36.88284 36.42152 31.01081 31.87861 29.97585 27.16566 27.56802 27.23428 26.72975 25.09579 26.10801 29.54107 27.35582 28.69820 27.43914 25.90283 27.33878 26.48829 26.00913 24.96975 23.47902 23.79797 25.80156 25.43298 25.61882 25.24295 24.95423 24.42380 24.31648 26.22239 25.16991 25.89377 25.57558 24.71507 25.33144 27.74166 23.89741 24.25121 25.49271 25.53501 24.66304
24.55190 23.61064 25.56336 25.00233 24.64318 24.15540 26.22305 25.51373 25.63253 23.63150 25.03925 23.83603 25.51869 26.13565 23.74231 23.94134 26.03431 24.50765 25.46331 25.39054 27.14249 26.04572 25.92704 25.65999 26.60111 27.82779 25.88242 25.17563 26.14694 25.47717 27.40890 26.13761 28.15423 24.20886 25.67565 28.10174 29.54996 28.41956 32.02913 33.85119 33.28102 31.65197 28.19759 29.76864 29.38767 29.67916 32.51729 40.17838 43.88489 47.41325 45.15450 43.12174 40.25728 35.47770 32.58717 30.35736 34.24300 37.65457 41.20464 44.42730 41.77096 36.75576 36.07000 42.10553 41.71278 40.30488 31.12194 29.32208 27.97934 31.18069 30.99729 32.63180 28.98273 29.03221 30.50384 33.94138 37.09161 38.15338 38.70114 38.63552 40.43647 40.68198 39.92525 36.93724 35.83778 32.08469 30.33639 26.61057 27.62548 24.70530 27.78747 25.62245 29.46157 27.21264 29.02743 29.65470 25.57331 27.46788 26.23471 24.18994 26.01017 25.62105 25.73304 26.38339 24.63488 25.95701 23.01734 23.32479 25.79019 25.13327 26.18881 25.99321 26.90788 25.42139 25.61709 25.58389 26.42103 25.19367 25.77503 25.20277 26.36674 25.29521 25.38943
23.02333 25.21594 25.48174 25.74697 24.86636 24.94963 24.84746 23.94317 25.21340 27.33434 25.88788 25.39966 24.48137 25.88918 25.45934 26.11444 25.83049 26.32705 28.75495 26.23108 26.91508 25.78617 26.54912 24.75725 25.76710 25.54348 24.65138 27.64862 25.43536 28.66603 26.51240 25.72953 27.05422 26.36251 25.59409 27.40806 28.75961 29.10480 32.18264 35.20525 36.21494 36.71454 33.04881 26.53804 29.01669 29.83425 35.11883 37.66003 43.89870 48.98159 50.44770 47.00237 41.53980 38.63889 34.26036 33.74395 35.67232 37.27286 45.62813 47.06581 44.93453 40.45690 39.66511 41.76194 41.42859 36.28113 31.71110 30.79454 30.32288 33.56933 33.08354 35.00458 32.38348 30.53104 32.34841 34.46163 39.07506 42.56058 41.05090 40.74916 46.04825 46.02556 41.00347 34.91406 34.02577 33.03502 30.11131 26.81552 27.57509 26.22191 26.42635 28.99960 28.95338 28.75677 27.48551 27.35727 26.83598 25.32493 24.74647 28.49173 26.82772 25.55865 27.26152 26.61486 25.25502 28.00104 24.96160 26.99650 24.77115 24.86293 26.68258 25.87477 25.10193 26.19180 24.78189 25.94870 25.77727 24.71963 24.90017 25.16349 25.01217 24.49590 26.11878
25.10901 25.09271 26.21930 23.77465 25.51180 21.65155 24.49922 25.63974 24.45107 23.78133 25.72255 24.68211 23.84560 26.19315 26.42470 23.74164 27.59041 24.37638 24.39762 23.68023 25.61582 26.15623 26.47979 25.65602 27.16251 26.14993 28.48926 25.08043 25.84991 27.50015 26.92086 28.85589 29.14372 25.80265 27.27308 25.50516 27.32053 30.16628 34.38756 35.00220 35.38721 34.45511 32.55054 30.41659 29.80821 27.57144 32.65846 38.22927 44.77187 50.73779 51.13208 50.01416 47.96836 43.42336 35.92295 33.15888 35.54093 41.98264 48.17649 51.96870 48.20768 42.39514 42.89869 44.69610 43.29827 35.33318 33.48501 33.61517 32.29096 32.29887 36.09048 34.54283 33.63880 30.75744 30.86400 35.63923 36.32477 42.07938 45.11362 47.70854 48.59383 47.03511 44.07390 36.71223 34.69954 34.17354 30.51071 28.60478 27.90765 26.90035 28.85474 29.67658 30.34616 32.09195 28.08183 28.84139 25.71974 26.81010 26.95459 26.68364 25.50938 25.83767 25.17603 25.09681 25.68458 26.20131 26.21919 23.34179 24.87229 25.75028 26.61980 24.85514 25.74395 26.71019 25.77432 24.78073 22.87880 26.92620 26.87529 26.96728 26.89391 23.42490 24.05345
26.20249 27.26313 25.48989 22.84471 24.97747 26.25775 24.99340 25.63740 25.63731 25.01688 27.09204 25.32027 25.68415 26.01328 25.18733 24.29628 25.83794 24.80336 25.36035 24.66416 23.91198 26.58670 26.67720 26.98999 25.97918 26.78521 26.12963 28.29934 26.19805 26.23391 26.79232 28.13442 31.13581 28.89110 26.71303 28.96841 27.88453 29.60367 32.24616 34.64337 39.39191 40.09299 36.88851 33.34620 30.37858 30.59422 34.04219 36.54071 44.80161 50.08544 54.33790 55.22221 51.67348 46.50481 42.92849 33.58758 35.57832 42.51494 47.66442 54.04499 51.05286 48.27527 46.05335 46.86935 41.32876 35.74250 35.03534 36.87101 35.64439 34.36077 39.76584 40.04165 37.42161 35.11013 34.25739 32.31930 34.75345 42.14502 47.75920 52.83598 52.30634 48.64910 45.94315 39.27492 32.32744 32.57627 27.95155 26.49406 25.07589 27.65348 27.55732 31.56161 32.85923 28.79388 27.47218 27.62850 25.81878 28.39497 28.27612 26.93181 27.86998 25.11212 25.09151 26.31083 24.87802 25.17805 26.06487 24.61228 26.35632 24.72958 25.33183 25.02941 25.92832 24.56723 26.35580 26.84470 26.44501 25.29483 25.77650 23.91686 27.51051 25.38125 26.56752
24.64437 26.71048 24.10997 25.46371 25.85961 22.69548 23.32187 24.34734 24.82298 24.27371 26.00137 24.42890 26.05842 24.59501 24.76742 25.77224 26.01562 27.38245 26.27708 25.91059 26.50890 27.36380 25.47401 28.47677 28.04277 27.91380 25.87347 27.59773 27.36774 29.08000 28.01445 31.17723 31.26571 32.37765 29.72347 29.61132 27.27741 30.47408 31.77664 34.46603 40.41654 41.60262 36.74155 35.96268 32.17202 33.13987 33.07532 38.02776 44.10507 49.27711 55.69240 58.23121 59.01152 51.60362 45.53023 40.83796 38.38142 43.64953 53.42664 55.98189 55.87933 50.05055 47.76352 46.63108 43.11245 39.35382 46.56266 42.73427 40.72045 37.37272 41.76744 44.02875 41.38090 40.04560 37.02240 33.89534 36.40608 42.95504 51.71991 55.26655 56.83351 49.42304 43.43590 36.28560 31.56969 29.54387 27.07639 27.16345 29.30944 30.79661 31.72423 31.90060 33.00931 30.98005 28.52570 29.01279 27.80621 28.98597 26.93255 26.93625 25.69573 26.26808 24.79920 24.81522 24.85196 25.05075 25.06783 26.54774 26.04408 26.70833 26.00382 25.98058 25.13906 25.76503 24.61334 23.26488 24.09268 23.32783 25.18377 26.33597 24.31804 23.57717 24.67205
25.05640 24.10288 26.52927 26.01559 25.99846 25.52213 25.56237 25.03871 24.92246 24.81056 27.16835 24.31379 25.48188 26.23323 26.77842 25.43847 27.41819 24.24637 25.68904 27.01339 23.46300 23.86666 27.37169 27.25312 29.25744 27.96171 28.44977 29.00380 27.22178 27.94869 27.99716 31.35816 30.74817 34.68019 32.15790 28.41587 28.97104 30.75307 34.46173 40.14244 42.62426 47.05957 45.43608 40.86947 38.06756 32.59515 32.96693 36.60047 40.28652 47.27820 53.51421 56.01357 58.03746 59.56892 48.50606 44.68939 39.33852 45.71722 54.68666 59.37526 59.51953 55.67774 51.38698 52.14102 46.34848 40.18121 49.86026 50.10767 45.98887 40.87356 45.83033 46.87442 44.86812 44.80637 40.83749 35.85123 42.46829 48.13089 50.85606 55.87677 53.53714 49.44447 43.16545 34.42277 32.84217 29.23342 27.38629 28.94158 28.23252 33.37873 34.88814 36.52436 35.87053 32.52656 33.68417 30.28924 30.42752 28.90214 26.98411 27.17175 27.05069 25.96866 24.97950 25.46051 25.21186 24.77487 25.25814 25.83222 24.92496 24.22772 23.76747 25.11201 25.92831 24.55774 26.15233 24.95871 23.00049 25.36658 24.99880 26.77878 25.42180 24.63053 25.21931
26.58781 26.71644 24.91838 25.21030 26.74285 23.82667 24.55784 24.50775 26.50526 26.60053 25.64673 25.62062 24.80897 24.42328 27.60986 26.63862 24.50217 26.17969 26.96500 24.93542 25.55285 24.72208 26.27689 26.99659 30.18957 29.56865 29.86449 30.56834 30.17899 30.86398 28.75463 28.60574 33.35785 33.02912 31.98984 31.94508 30.31359 31.72234 34.87251 40.13962 44.01332 47.56675 48.56683 45.75204 43.38099 36.90312 32.56270 36.06092 38.46897 43.29377 49.94704 54.08487 60.71822 62.34721 53.30731 47.79210 43.05224 45.60379 55.85234 62.22257 60.78322 59.25177 60.55561 56.89264 51.59556 47.05018 54.40642 50.83194 45.63410 45.98448 51.17074 52.85577 53.43748 47.36366 40.58906 39.96038 43.89825 52.00993 59.49367 59.10310 56.93519 46.58496 42.10654 36.15486 31.80825 27.18636 27.83411 29.50367 30.88139 34.27187 36.50218 39.82209 38.64954 35.99991 35.65892 33.02709 30.07872 29.31935 27.70533 25.99715 25.79096 24.59140 24.67391 27.59463 26.18518 27.92040 25.22657 25.08861 27.20416 24.54361 25.21268 25.64912 26.75228 23.04420 24.16736 24.41792 24.77869 26.67641 26.99513 24.95352 25.37121 26.13786 26.90785
26.34834 23.62389 23.73881 24.76844 24.92701 24.51839 24.81107 25.04926 24.85825 26.22844 26.56468 24.31060 26.36945 26.40866 26.10441 26.06187 25.08492 24.96954 24.43846 26.07917 26.42203 25.59149 26.37763 26.18277 29.38599 29.94633 30.66339 32.24053 34.42199 32.81369 32.06946 31.79973 31.16521 34.61102 36.46639 36.04073 33.11076 33.00063 33.59606 40.14112 46.47386 51.44120 52.82382 50.04747 46.57408 40.24403 40.14067 39.43117 36.23804 42.98766 50.72256 58.20093 63.31273 66.68032 62.07013 55.11711 45.12618 48.16767 57.55792 63.98342 66.13285 62.36732 64.03810 60.79751 54.10862 54.15347 57.18924 52.15225 52.31359 56.96369 57.98508 59.91214 56.59617 49.90448 43.27118 40.65914 45.99826 54.55750 61.82168 59.05478 55.23870 44.30690 40.64745 32.54309 31.17494 28.84460 27.73501 29.28013 33.48086 37.91380 38.84262 38.45416 38.22437 38.93605 37.07499 35.06871 30.14844 29.91314 26.59460 25.82852 26.19940 25.18708 25.59829 27.03456 25.73478 25.78176 25.21336 25.34442 26.81997 24.64781 24.87681 27.04319 24.10142 27.29700 24.77469 23.74547 25.52276 23.37588 24.92638 24.95696 23.51025 25.77886 25.74489
24.10513 24.66796 26.66034 24.52534 25.27926 24.21735 25.93270 23.29409 25.95965 25.82055 26.32826 24.27244 24.49620 24.98997 25.04348 27.21346 24.73916 27.43748 25.68139 26.72033 24.11461 24.56094 27.07184 23.38096 27.78192 28.21301 30.39808 31.71315 34.13575 33.22720 35.55431 33.49405 34.43186 33.32764 36.99874 37.39753 35.12287 35.42578 32.58274 37.35987 45.54776 48.57725 55.14313 56.89020 54.76450 48.04928 45.04412 45.18199 39.44368 41.83667 51.40091 57.61339 65.70001 67.78022 64.36058 60.30336 49.92269 50.30057 60.03001 67.07024 70.33773 70.44899 71.55117 66.22302 59.15146 63.01884 59.77802 55.32439 58.69503 62.28327 65.31417 61.34995 53.37002 49.63922 45.18793 39.89260 50.41789 58.18982 64.37529 61.09259 54.95014 45.92273 36.57613 35.20727 31.02396 29.49377 28.23647 31.16609 34.42642 38.17293 42.94250 45.63327 45.68087 39.35307 35.80523 32.06169 29.01304 28.27145 26.55988 26.51478 26.02222 25.50887 27.26978 27.44003 27.30314 24.80492 27.28080 24.55212 24.11088 26.53537 24.54374 25.60847 25.49064 23.31825 25.84524 25.69802 26.34417 24.80810 24.30736 25.70882 24.69500 24.26759 25.06904
25.31152 27.21868 25.99170 28.14162 22.89112 24.91552 25.76828 25.91420 26.81284 25.11852 24.62015 26.98430 22.32126 25.79897 27.59962 25.31340 25.28862 23.98678 26.23965 25.35401 26.30448 26.24170 25.35861 25.46081 26.82141 27.43484 30.50066 32.75255 34.40816 36.47189 37.90042 36.93547 35.99990 37.50073 38.89256 41.25631 37.80184 39.65959 34.63811 36.27940 42.25656 47.04027 56.33310 61.74750 59.83929 55.56533 53.49713 47.27777 43.72592 41.45060 51.43128 53.68157 65.19367 71.56071 68.43252 62.52474 59.73337 55.71083 63.48261 73.44713 74.50008 77.56411 76.38181 68.21922 64.06602 69.15605 65.50365 67.68928 68.87384 71.74297 66.08425 60.98399 54.02742 53.90238 47.90025 47.05507 51.71923 61.83188 62.98303 59.32853 50.36755 47.80364 39.86690 33.95280 30.69873 29.07102 33.09364 33.03891 37.03156 40.27002 46.67104 47.40766 42.36155 40.72046 33.55885 29.62168 29.69137 30.03310 28.45499 28.51661 26.95056 26.85247 27.27013 25.90611 26.44542 26.66345 26.82062 23.12319 25.44183 25.63448 25.69267 25.06664 27.08729 24.97123 24.83776 24.38455 27.13147 24.58296 25.91787 23.46169 25.39723 26.14822 28.42557
25.15349 25.02567 24.72522 25.98092 26.04977 24.55841 24.44362 26.49231 24.15640 26.56903 24.04290 22.46353 25.61234 25.73419 26.45030 24.44156 24.79974 24.96594 25.52605 26.69238 26.25253 25.49823 27.03927 25.47429 25.54973 25.49988 29.68206 31.79181 33.18268 35.87516 37.40170 38.95514 37.96124 42.26201 41.24185 42.25648 43.05142 38.77155 36.48384 36.33727 39.21538 48.68290 54.30157 62.44974 67.71877 63.87644 58.88126 52.62132 47.12319 46.74500 49.24518 53.69499 64.18252 72.87074 72.75744 73.62878 64.02923 60.01066 65.71248 77.43570 81.58109 81.40163 81.23177 72.06409 70.80074 72.39736 74.18567 72.99306 76.87390 77.42979 73.31351 63.07876 61.49726 59.97647 52.75505 54.71292 59.72384 65.41011 65.56768 55.31390 51.15136 39.51203 34.94376 34.32827 33.61426 34.31317 34.63901 37.55847 38.51284 45.73711 47.94298 46.75358 42.70208 37.47248 33.38125 30.45254 27.86772 28.15200 29.58297 28.84456 28.87120 28.84219 26.23421 25.23864 27.16308 25.98234 24.50204 25.17866 25.71896 25.74572 25.19405 24.05607 25.71161 25.68825 26.11535 23.34296 27.14927 25.25114 23.98493 25.98010 25.83905 25.46690 25.66139
26.16016 27.42004 26.61826 26.02975 25.99505 25.80967 25.38260 24.25320 24.37185 24.38682 24.18029 26.32203 25.75117 26.10204 24.75180 25.84248 25.07507 27.84115 27.31575 27.12154 25.41967 27.09560 28.46139 26.61281 27.14024 26.74430 28.05666 27.29102 31.53810 33.95552 33.21403 35.73809 40.17561 42.86449 41.98806 48.28019 48.93987 43.67732 43.33546 40.93646 40.16382 43.60024 52.97231 60.04064 69.56954 68.86057 66.87769 61.25299 55.24341 49.68076 54.79754 55.95035 67.58176 75.00465 80.26962 80.04130 71.07675 72.31660 70.53646 80.65334 86.61996 86.72074 85.70855 81.99482 79.46109 86.00865 82.40892 79.31754 82.36384 82.24559 76.22501 73.13929 66.20494 63.09035 60.98506 59.99147 68.56392 67.73033 63.08313 54.25057 43.49698 38.92590 38.46009 35.88303 34.46373 33.77450 38.99765 43.13223 44.47304 47.02602 51.04471 44.49139 41.20667 37.65683 32.53434 31.22701 32.99075 32.56315 30.33801 28.40222 29.71938 27.27083 26.67024 28.26586 24.90825 26.83741 26.00549 24.72330 26.55465 25.10177 25.73055 26.15253 26.74910 25.00104 25.94534 27.77986 25.96872 23.98382 25.55803 25.67678 25.13993 26.17385 22.35115
23.75105 26.91709 24.53120 23.91040 22.80752 24.25723 25.57372 24.15231 26.41826 23.59927 27.32982 26.26831 26.25645 25.76578 25.84655 23.92209 26.64554 23.89863 25.50232 24.03268 26.18663 27.28888 26.12021 28.73434 26.14313 27.01389 27.62839 27.87112 28.15401 27.75125 31.97980 37.02171 40.85541 42.21621 44.49781 47.47014 50.79643 48.67268 48.21889 47.30825 45.12165 42.88469 51.06734 60.86904 68.63532 74.00624 71.79555 66.51873 59.03643 54.07122 57.55344 61.51937 65.00063 76.52113 83.90352 86.76044 77.92501 76.46969 83.25588 90.87545 90.85236 94.59243 93.52180 91.12254 91.88298 92.59458 89.42434 89.73272 89.77507 84.07618 77.12360 78.17354 72.54533 69.15087 64.74734 68.42809 73.72894 70.77041 62.66462 52.70495 46.34555 40.94054 41.52703 37.82322 35.12709 36.51891 45.81114 49.62197 53.47907 51.76019 49.99900 42.81799 39.87921 35.49770 32.63414 33.85677 33.55533 33.69094 29.98524 30.20845 27.16515 27.56135 27.49352 29.35681 28.58051 27.19859 26.20043 25.02442 24.48190 26.67712 24.27000 25.73987 24.19167 26.31746 25.21308 25.64281 24.43394 24.43464 27.00398 26.18528 25.59161 25.46051 25.10884
26.11811 25.10817 26.58000 25.89326 26.09582 23.44002 24.40657 26.30425 25.46008 25.23343 25.93191 27.07606 25.46645 26.98913 27.12447 26.14908 26.62017 26.55480 26.74127 25.28149 28.72367 28.56719 27.55354 28.59543 25.95410 30.19045 28.34138 28.92794 27.47063 27.12826 29.41050 29.22530 37.28228 42.54238 45.67162 48.65234 55.26866 56.65818 53.72305 52.35954 47.59606 44.77779 51.30114 59.75988 67.07979 77.06309 77.80327 71.56449 68.85997 62.45205 65.37255 69.33302 72.14221 77.91814 88.74776 91.74760 90.22463 83.90833 93.17808 97.65551 96.94392 100.86239 101.06727 99.06410 99.71032 95.68850 94.97087 96.89548 97.20929 87.24905 88.81622 84.94377 81.64512 78.12152 77.92751 81.62990 79.07573 74.35751 60.30217 50.99748 47.48694 51.23448 44.97019 40.30724 38.28158 45.14401 50.97757 53.98827 57.38478 54.02947 46.47126 41.89428 39.16176 38.40202 37.96696 38.57224 36.97758 33.40409 30.97276 31.92265 31.07194 29.52434 28.60883 26.67664 26.08442 26.29947 26.55822 26.71569 26.61591 26.58409 25.02670 26.01496 26.12063 25.98087 25.62617 25.21988 24.76462 26.71675 25.22276 22.95103 24.16483 24.30934 27.53625
24.93240 27.23659 24.76481 26.36379 26.00164 24.46464 25.10784 25.17317 24.87583 25.99530 25.04149 26.25540 27.35789 26.77472 25.66808 27.23392 25.55971 27.35652 27.52025 26.88240 26.26531 26.62280 29.27535 29.51510 28.87705 30.26064 29.24566 29.99305 33.40905 32.64794 32.57074 28.73263 34.92017 39.45236 46.02935 50.71234 57.34920 60.32569 61.47613 58.77820 55.45972 51.17162 52.90690 59.03261 67.59672 75.11598 79.35524 81.39676 72.07273 67.37854 72.50375 71.20243 78.86346 84.01164 90.42251 95.92683 98.16955 98.66952 98.66291 104.00201 105.36150 104.65232 105.77725 104.41345 104.67868 103.23174 104.28597 100.61961 100.35430 94.27844 90.75260 92.65425 88.60171 83.54586 84.12394 81.71622 81.65650 76.61184 64.35585 55.41398 55.99575 52.41449 45.68749 45.19067 44.62155 52.25909 58.37271 62.76493 60.89743 53.48642 47.38716 43.95054 42.36218 45.57724 42.66834 39.75322 36.34615 36.81252 33.23320 31.66991 29.53227 31.10376 27.13725 28.38445 26.41240 28.03471 27.11144 26.53398 26.09644 26.02921 24.99814 27.93084 25.03505 26.34975 25.77782 25.81725 26.66948 24.88841 25.25047 24.66910 27.02883 24.86097 23.05972
25.80381 26.62943 24.91655 24.56918 24.97544 26.11009 26.88531 24.34146 25.12505 23.86180 25.67786 26.52358 24.62511 25.63873 26.39066 27.94673 26.73434 27.60956 29.36562 27.18157 27.37538 25.60820 24.75644 28.89190 28.65163 31.85846 34.46492 34.86049 37.03879 37.28467 36.00585 35.49317 33.03414 36.66796 44.67284 50.41503 54.74001 62.61818 67.20988 68.04647 63.87807 56.86309 56.10915 56.65085 64.58716 72.70679 81.68262 82.22904 80.87674 76.43844 82.25847 79.65755 89.35843 92.85596 98.34208 100.97299 102.82367 103.10595 102.76413 104.68726 110.56911 109.29929 108.10111 110.91561 108.40728 108.58003 106.08872 107.71643 105.22818 101.47348 102.16297 96.88460 96.98078 95.50621 91.97556 92.25354 82.81263 74.33537 66.98960 62.59380 62.03152 55.46632 51.18794 50.30463 48.38921 58.72057 65.23278 66.15290 60.43910 55.81265 52.87257 51.39808 50.53790 49.00501 45.21577 39.76201 37.87008 39.73468 34.59130 31.26378 30.05276 27.37785 28.54010 27.51056 28.50661 25.75177 25.51942 26.72542 25.13777 26.19075 26.30080 26.31926 26.06594 24.27359 26.97484 25.64582 25.05089 22.76613 25.25648 24.48897 22.51286 26.09170 24.12626
26.11093 24.57614 23.52075 23.76403 24.21520 26.59717 26.19300 25.14466 23.69537 24.85000 27.18603 26.36819 24.13948 26.13389 23.75373 25.01944 26.20198 30.51449 29.97500 29.64176 28.27044 31.44598 30.57480 27.71207 29.47448 32.12144 32.63461 37.90445 38.17617 40.90430 43.05706 36.54894 38.98974 35.85147 38.08816 43.53528 50.72787 62.85956 66.95872 70.72526 75.48052 67.30866 67.09112 62.33190 65.17094 70.00761 78.38178 84.47930 86.19263 89.32146 91.42633 91.99216 94.95093 93.89582 103.99028 106.80232 107.69941 107.98593 107.69515 108.44387 108.50815 108.44178 109.74165 108.05415 109.69361 109.56279 110.80292 109.55832 106.82183 107.77211 104.62524 104.37558 102.58799 101.29583 98.79229 91.12207 87.74251 82.30633 75.27275 66.12332 67.36434 56.15844 49.33837 59.95064 61.95579 65.07838 72.32419 69.85163 63.08911 61.22462 57.86431 56.24457 50.75706 51.30898 45.14331 43.30947 38.28821 37.66899 30.37694 28.64443 27.12850 28.31775 26.32876 27.57486 25.81910 26.57443 25.93400 28.86836 25.97536 27.48233 25.98495 24.70749 24.62784 25.53527 25.19767 25.08867 25.89806 24.22784 26.16012 25.70048 25.61480 26.24264 24.17002
24.80625 24.98730 25.03835 24.45169 27.19597 26.56141 26.21700 24.95412 27.40932 25.58623 24.84743 24.89917 25.46921 24.48323 28.25133 28.31091 26.42530 26.39442 29.85966 30.35403 31.14178 33.34375 32.82258 31.14512 30.90668 31.32636 32.33472 37.45192 42.09182 44.21221 46.75989 44.85990 44.23356 41.26954 38.89249 40.28502 50.05409 58.95715 67.93835 73.80008 77.33871 77.37781 75.86843 74.40874 71.89770 69.36454 81.08094 87.43277 93.03560 94.29368 95.93611 97.58752 99.80539 104.38221 107.46739 108.38005 107.94546 107.62688 109.57049 108.51249 107.82414 108.13503 108.11446 108.36183 109.60448 109.48959 108.42841 107.99027 107.14977 111.12529 107.87267 108.61117 107.37008 105.99357 102.38231 99.44254 93.92259 86.78074 80.65059 73.82080 66.05904 60.71745 60.55277 63.63382 70.33896 77.61608 79.25067 72.19668 66.31091 62.15921 57.43182 54.43039 50.60585 48.04923 41.43990 39.69386 36.22393 33.69515 31.28989 26.69383 26.04712 24.60802 28.88539 27.21402 28.01316 27.60362 26.80791 26.93749 26.20538 23.55538 26.89103 26.21664 25.54634 23.99587 25.64088 24.71276 23.48447 25.45451 24.29011 25.17382 24.78729 24.23734 27.11920
25.68876 24.37803 25.31282 25.99429 23.96614 23.27653 24.01936 24.44338 25.01415 25.11286 26.06980 26.00478 24.57638 25.04333 27.66449 26.06520 26.25482 29.16781 28.58061 31.55625 31.88589 35.26498 34.86471 35.58050 35.54776 33.38500 32.89343 34.17108 39.53064 43.18629 48.26650 49.04964 50.84456 46.43807 44.51125 40.42785 46.55125 56.35492 65.63398 71.07031 79.42272 79.23511 80.19677 82.82417 83.02936 83.94531 85.71325 93.43187 98.67288 101.50237 102.97301 104.45420 107.35472 106.41841 107.34025 106.85490 108.04319 107.81952 108.54954 105.71046 105.02649 106.65369 104.87301 105.75289 106.23447 106.46510 106.24404 108.00154 108.06260 109.08785 107.56462 107.42608 110.22566 108.22337 107.49868 101.44601 98.19612 91.81473 86.97276 73.01176 67.34756 71.52029 73.34374 75.20575 77.57645 79.58865 81.17395 73.94466 67.04066 59.68488 48.70752 46.93529 45.77239 41.96818 35.45552 33.47167 33.52675 32.08662 30.83788 27.98570 29.58687 28.84479 27.26626 28.33286 29.65665 27.34263 25.79513 25.23819 24.92721 27.57865 26.12880 25.21599 24.51592 25.84955 24.42644 24.14777 25.45139 25.57082 26.47377 26.14702 26.67470 23.83090 23.62920
25.81890 25.57243 25.46956 25.17163 23.21308 25.20031 27.93587 26.72887 24.31300 23.56601 25.41685 27.44249 23.12715 26.64229 26.32336 26.74188 28.06726 26.04402 29.11282 31.54236 32.97905 36.99327 40.77220 37.50931 38.12475 37.96211 36.78155 37.69456 36.76919 40.26759 46.84788 49.60629 55.59666 56.39480 51.21527 46.06388 50.37848 55.31207 64.30325 67.01313 77.44791 84.67963 89.79798 92.37122 91.30554 90.89918 93.88142 96.91572 101.73378 105.38507 107.85572 107.03866 107.28309 107.07979 107.46608 106.24779 105.57763 106.61422 104.15372 105.29833 105.56703 104.26284 104.52137 106.15677 107.39798 106.62897 106.22766 105.36051 106.56227 106.44543 106.21465 107.73461 109.89178 110.10124 107.88389 106.89511 105.26645 95.73456 88.27787 84.35312 80.66121 79.24873 83.68755 85.71556 86.21904 83.77485 76.14478 72.66070 61.65069 55.84855 49.37773 47.12944 41.39913 36.20612 32.68451 31.94950 29.61599 27.79185 30.03976 29.85208 30.90557 31.27942 31.41135 28.22570 26.89863 27.00148 26.67221 25.05032 26.28531 26.78869 26.46224 26.29728 25.01012 26.58618 25.41690 24.35759 26.20416 24.92784 24.43120 25.67094 23.35739 26.21970 26.61485
25.50371 23.90179 26.78817 27.22422 24.33135 26.06150 24.54586 23.79126 25.49953 27.43735 25.56534 24.40410 27.59013 26.37064 25.55921 28.23483 28.51057 28.13797 29.30451 31.55702 34.45084 37.79997 39.93574 41.56247 45.45249 42.72126 43.36123 42.07958 42.92943 43.22798 44.87267 52.65165 56.12636 61.24389 57.71608 54.34529 52.73648 53.71437 56.98245 63.62202 74.36935 86.79332 92.40942 93.71698 97.99814 100.57409 100.70070 105.83714 107.34706 109.02411 107.56033 106.49338 107.32941 104.72505 104.16417 103.83468 102.11644 101.17333 104.08220 104.17077 102.61295 102.52656 103.47981 104.34587 102.14703 104.50339 103.88474 103.12741 104.49829 105.49697 105.12801 106.45667 106.06946 107.54656 107.85496 107.56081 107.68804 103.02008 97.21498 94.44663 88.35039 89.44368 88.90492 93.23210 90.29528 81.71885 76.17711 67.70098 59.00637 55.02629 48.86967 45.13504 40.71335 38.27367 33.24683 30.57655 31.19919 28.31981 31.34993 33.00806 33.09513 34.33930 32.15373 29.08550 28.33722 26.56355 28.95223 26.37147 26.38031 24.97317 29.32945 26.72845 27.27813 25.30831 25.47171 25.66617 24.16014 25.11488 27.76207 25.54351 26.31657 23.70966 25.82312
26.77330 27.45004 26.65685 24.50099 26.17610 23.97332 24.99371 25.14240 24.31362 25.62817 25.18177 25.13863 25.08391 26.41497 27.29373 27.98513 27.65438 30.37267 31.28613 31.95530 34.45153 37.37264 38.49694 43.52317 46.32997 45.01462 48.49514 53.60567 46.82742 49.68023 49.91836 49.87801 57.27048 64.42759 67.79983 65.54239 61.10326 64.13806 62.16437 60.13356 69.16682 84.78218 92.89118 99.32485 104.86333 104.87740 107.12033 106.98440 108.52686 107.50825 104.91806 106.14383 105.20308 102.80241 103.73759 101.40212 103.01370 101.97739 102.59207 103.57096 100.65074 100.08935 101.17888 100.84774 101.88432 100.82645 102.00991 101.18770 102.55671 103.24724 105.09712 102.55512 104.19063 103.74027 107.71647 106.58067 108.44710 106.75489 103.39013 100.75564 97.50365 98.41619 98.13338 96.28665 87.14681 85.00388 74.08588 64.35603 59.66507 56.64975 54.32890 49.02969 42.23774 35.92813 32.21584 32.22386 37.51444 34.47949 34.36144 36.57833 37.95962 34.73098 31.13785 29.67199 30.80099 29.71266 29.61462 27.89964 29.79382 25.78164 26.00453 25.96376 25.60341 25.99905 25.60391 24.57630 24.11589 25.14924 26.59459 24.65158 25.09619 27.38060 24.82424
25.77070 24.22728 26.66639 25.97071 27.74521 26.21956 26.96473 25.80144 28.58511 26.74557 25.71311 25.90815 25.90333 24.51841 25.45553 27.56339 27.82990 27.64643 29.42532 30.50832 31.02177 34.98122 37.70819 41.60322 45.34575 46.91330 51.60411 52.09681 55.18983 52.79509 55.97109 58.23569 61.31743 66.90460 69.66197 72.36334 68.05847 69.42859 67.66755 68.07636 70.27881 82.55791 92.11737 100.14746 108.10244 107.04744 107.09008 111.05139 108.04589 107.28632 104.24937 105.50612 103.37404 103.89558 103.94751 101.87758 100.62710 98.34517 99.28377 100.98695 98.70456 99.39932 100.56424 99.91494 101.41161 99.62319 102.27860 100.57335 100.31356 100.39790 103.82312 101.10061 101.67403 103.56160 103.90169 105.18483 107.23196 107.57650 106.98986 104.47474 103.06050 103.24641 102.93035 96.80510 90.52232 85.13332 76.20090 65.49660 59.44500 55.92583 51.86282 46.95565 38.05127 37.29247 35.14209 37.76909 41.16836 38.51268 41.33234 37.39630 36.28792 34.32169 31.37148 33.08425 31.42186 31.00739 30.61178 28.85284 28.71550 27.61957 27.80797 25.43375 25.22803 24.41923 25.19273 25.56999 25.71159 25.67991 26.43236 23.61522 24.88718 25.84485 24.77652
25.58938 24.17435 25.57016 23.58015 26.56204 25.42363 24.57228 26.03962 25.90293 24.24135 26.47814 24.73567 25.91202 25.83108 25.08992 25.94660 27.11708 25.55739 27.93504 29.44555 30.39759 32.94622 36.21509 37.72995 41.67750 41.45089 49.26670 50.81271 56.51598 59.46214 61.51472 64.90222 63.25229 72.04264 78.23821 80.56944 82.55716 78.98680 78.78974 80.43499 78.91654 83.54963 93.31056 99.37521 104.55037 107.14716 110.60703 107.95502 106.19257 105.54922 103.83341 101.82135 102.01852 102.22927 102.07821 99.98540 100.30947 100.64969 100.01523 99.09692 98.02901 101.13207 99.01780 96.92455 101.03071 97.66027 98.38103 97.73843 101.53428 100.06315 102.93761 101.67504 101.74888 103.48525 102.46322 102.68490 106.41315 106.49816 110.12823 108.19399 109.67621 106.38278 100.97551 94.32791 86.38035 82.14169 71.65363 64.86139 55.33280 46.30223 42.82875 39.34592 38.39053 39.96490 43.99585 50.48265 46.27775 47.71714 43.32672 41.74043 37.13147 35.54724 35.99965 36.41132 37.57498 35.43797 33.73535 32.36092 26.30930 27.11396 28.03657 26.65667 27.22299 24.92076 24.09194 23.93148 26.46428 25.55315 27.32509 22.92362 26.43075 26.00093 24.23410
24.97107 25.86036 23.53934 25.41216 26.22979 25.91024 26.44869 25.69430 26.08206 24.67284 23.95067 25.09211 25.03886 26.25646 26.27260 27.53950 26.79258 23.24742 26.80367 27.42733 27.56689 27.80187 31.70348 34.76906 35.91226 35.60164 46.21720 49.93797 53.07403 56.57462 61.49815 61.87191 68.94456 71.33767 80.57119 83.88169 88.51957 87.59768 89.56286 86.34804 89.07544 90.87324 95.39045 102.57033 107.82413 106.95398 108.30321 105.24298 103.92015 102.65417 101.81590 101.21265 103.23208 99.64723 101.25203 100.36752 98.35986 96.28749 97.95643 99.83775 96.42285 99.71798 97.24449 99.37821 95.46333 98.36438 100.36129 97.94151 99.81339 98.25174 97.47042 100.85791 100.96869 103.80572 102.35168 103.61430 106.45685 104.84207 109.78048 108.04236 108.88725 106.72295 97.94487 92.56936 80.63004 74.46509 62.95328 57.96895 51.68105 51.53534 48.21368 45.07431 46.82114 48.92447 48.22971 53.07476 50.16769 52.93922 50.29262 45.35011 41.22730 41.32157 41.03653 41.48021 39.36516 35.25985 34.35468 29.88690 25.05810 26.22151 24.51299 26.42955 23.45035 26.21421 24.83659 25.04907 28.16193 27.51458 25.17804 25.52278 26.39126 26.71411 27.10148
24.41977 25.20740 25.92975 24.68788 24.71156 25.94094 24.63411 25.10665 25.74147 24.57748 22.36336 24.30877 24.86531 25.42211 26.79474 25.95226 27.17152 26.57224 25.55710 26.32453 26.70868 27.24085 27.23571 29.21018 32.32350 36.71460 39.82228 44.03197 48.12230 51.23608 55.03018 59.30371 63.10582 69.76854 77.15444 85.38556 88.07025 91.66951 92.23279 96.65980 98.77496 98.02544 103.73316 105.87140 108.55648 109.50026 104.99236 103.74169 103.26894 102.25892 101.61274 100.33778 101.54315 99.95034 100.13949 98.77362 96.97136 98.75998 96.54636 98.65190 98.14184 96.76598 97.47929 97.60584 97.27438 95.60220 98.06243 100.06647 97.69705 98.18715 99.38716 100.27748 99.83151 101.18430 100.80695 101.20407 103.21332 104.03874 104.68077 107.19223 109.06517 107.57172 102.61417 95.73198 76.39281 68.94799 62.93488 62.05569 62.73164 59.72414 56.27009 52.61725 53.09912 57.74683 57.43586 64.39541 61.32134 57.51671 53.83148 48.72218 46.01645 46.08773 45.98050 40.78770 38.79348 34.42042 30.15236 28.19729 27.69261 25.97889 24.43606 25.81269 24.92963 25.96623 26.77239 24.92029 23.77963 27.16422 24.47825 24.44815 26.50700 26.32242 25.58933
25.50277 26.36203 25.17536 25.66706 24.26561 24.49063 25.30250 23.52324 24.45897 25.75646 23.55198 24.41500 23.76769 27.75981 26.91537 26.98161 29.48161 29.14823 26.36740 27.41898 28.47540 27.17609 29.66617 28.42010 31.71761 32.41870 37.16571 37.33546 37.64341 45.28899 48.81992 50.08846 60.65153 63.20116 72.03422 76.50842 82.02278 87.20613 98.66078 102.07630 104.26807 105.76014 108.28536 107.31262 107.18657 104.29093 103.97758 100.62401 101.49600 101.78866 100.22603 99.66841 97.64021 98.50631 96.48466 97.23616 97.43936 99.11406 96.83532 97.70244 97.67727 97.76577 98.88181 98.50045 95.94164 98.86734 97.38789 96.40665 98.87881 99.75118 96.90929 99.58809 99.94585 98.93710 101.37993 101.00380 101.94986 102.59958 105.86745 105.62915 109.10874 107.03071 103.82172 92.90613 88.05714 74.57191 71.98917 69.07966 68.77203 65.65913 62.97314 59.28878 59.91240 63.29721 65.55309 64.33947 64.07622 59.89428 55.53940 53.29823 51.15076 47.20507 45.04515 39.68394 37.15174 30.61877 29.98508 28.43636 25.08770 25.13831 26.23341 27.81728 24.14407 27.36939 26.58434 26.20940 26.77673 25.43728 27.09089 25.50051 24.24606 23.18377 25.81014
25.64414 26.11352 24.38836 25.25119 24.17465 24.73155 26.23339 26.56049 25.50230 25.96360 25.64557 25.90662 26.17253 29.41672 28.52339 26.63013 31.39852 30.93789 31.32710 29.37779 30.15263 29.64001 28.68255 28.61014 30.44072 29.33896 34.85263 33.07271 34.78877 40.33807 40.10930 42.82076 48.50515 57.62577 59.95221 70.59290 72.20700 84.75508 92.41077 99.34448 106.94002 106.85113 109.28043 107.42132 107.84426 104.92021 102.68134 102.22312 101.53519 98.74759 98.62927 98.82797 97.29129 97.98425 98.13777 97.40006 96.00833 98.72276 96.72571 97.31468 97.72696 95.75718 97.63840 97.57422 98.09409 95.67322 96.91153 96.43355 97.83982 100.99139 98.72935 96.93950 97.05219 99.14612 99.75580 100.07497 100.46299 101.47472 104.97751 105.38301 107.97038 106.44184 102.58058 98.01608 93.67564 87.11763 80.32485 75.49045 76.52425 74.92397 68.73165 67.93043 68.46135 70.11145 71.27951 69.73700 67.69853 61.12186 57.32765 52.19415 49.77922 42.46155 40.17909 37.89929 30.91941 29.75979 27.51292 27.53320 25.08828 25.82943 28.52245 28.65371 29.57533 28.44982 26.74903 26.78976 25.80929 26.11437 25.18080 25.44768 26.48866 24.15294 24.92191
23.62299 26.01107 24.96510 25.84554 24.70379 24.31168 25.14667 24.87306 24.20870 25.34985 25.47910 25.53294 27.22659 27.74864 28.37275 29.80765 31.31574 29.95810 32.71401 32.37335 32.47065 35.38902 31.84400 29.08995 29.90238 29.16539 32.82475 31.09197 34.48043 34.36802 37.23197 38.93716 42.68053 50.87867 55.77383 57.82337 66.11553 78.01705 88.22068 98.26401 106.64230 109.49637 109.75116 106.70386 105.34762 103.23966 101.74668 101.92609 100.56130 100.06507 99.36275 98.92867 97.03523 95.64600 96.54851 97.46254 96.74303 97.47995 96.61677 96.96570 97.05979 97.90193 97.00826 96.96396 97.64227 97.60049 97.11614 95.85943 97.30646 96.61378 97.61428 99.65935 98.43978 99.24079 97.38981 99.80850 101.07412 101.38620 101.90769 103.69570 105.08700 107.08940 106.71957 102.91551 101.38076 92.42757 89.46284 90.35498 88.51083 85.17869 76.52145 74.18139 72.71703 72.71404 70.47557 65.41618 62.76641 57.07657 53.33470 48.47226 46.80280 41.67767 36.59496 29.62365 31.49202 26.84830 26.83496 27.25638 26.13510 27.29437 28.56716 27.86313 29.52990 27.60507 28.02359 26.14983 25.90626 26.44254 25.14592 22.38906 25.42952 24.03355 25.03712
25.80910 24.20712 24.94935 23.34369 23.93124 24.54977 25.15880 27.04593 24.55914 26.69208 28.31942 24.84205 27.88214 30.58617 31.38868 29.81855 33.65317 37.15658 36.95971 39.07789 39.31724 36.27587 38.23720 33.04676 32.32986 34.87825 35.82828 34.36239 36.78916 37.25598 39.45574 44.36688 42.42354 48.63486 47.57870 57.21283 65.81933 75.07559 86.18464 94.91737 106.90172 108.11155 106.24803 105.03432 104.49238 103.98065 101.99634 100.83646 99.42635 100.44404 97.34620 99.42944 97.30404 96.47009 96.47690 94.71552 99.62519 96.52879 99.30601 98.67544 93.72248 95.76701 94.97609 95.03255 95.47002 97.70957 97.65322 96.93006 97.01302 96.63439 95.69904 98.03867 99.13755 98.71190 98.47768 99.26200 100.45448 100.59037 101.48800 104.37392 105.75608 105.57166 107.76046 107.30139 104.58019 105.02497 99.34661 97.56817 96.00183 87.69553 83.79911 81.83495 74.56654 70.66810 62.58142 57.86325 53.91723 55.02482 50.31888 45.34375 38.42849 35.88503 34.69285 29.75336 26.61856 26.78711 28.51054 29.50307 27.20106 28.50219 27.83297 29.88483 27.50921 26.27749 27.44049 25.08476 25.70884 24.56471 23.99629 26.46540 25.56552 25.05761 25.20320
26.20558 24.87338 27.53566 25.73790 26.49001 27.23290 26.74163 25.58675 25.06395 27.56053 25.77342 27.71027 29.19332 32.25364 31.96678 33.70965 32.59239 34.66449 34.47425 39.03171 40.19032 38.59397 41.34685 42.67362 41.18860 38.85904 42.10028 41.76130 37.29060 41.71624 45.06846 49.14144 48.79468 53.15605 57.08157 60.38160 64.15817 77.76504 85.28594 95.60296 105.19365 106.54130 107.80034 104.28580 103.12506 102.03404 101.12225 100.06333 98.29939 98.10360 97.74360 99.53003 98.42424 95.54981 97.17784 98.86850 96.99441 96.89279 97.46654 96.41595 96.18313 97.25709 97.36118 97.66984 99.10209 96.95298 96.82960 96.41377 95.57542 96.04968 96.65662 96.88931 98.80954 97.14281 97.50366 98.10297 99.58553 98.71484 100.19846 102.10722 103.34708 105.85940 108.37707 106.72905 106.53644 107.04480 101.94100 100.30393 95.28274 89.91563 85.91293 75.34675 73.30410 63.23884 55.92642 47.19353 48.69163 45.24031 45.75010 40.01026 36.19558 30.98158 30.31945 29.00610 28.50980 28.95242 28.13752 31.79713 31.96731 31.28329 30.21248 30.25753 29.15262 28.14885 25.68682 26.80493 26.36265 25.97182 24.30948 25.49757 24.56817 24.29732 26.24760
24.60126 26.28727 25.91590 25.76873 25.24763 25.88862 25.79497 24.13770 24.98549 26.94754 27.43152 26.54401 28.35539 28.79173 29.97623 30.80585 32.06844 33.08184 33.32159 36.66674 39.49760 39.87902 43.91159 44.67722 44.83648 46.15881 47.51218 44.59155 46.08560 43.40986 46.13737 54.25500 60.44402 65.53131 63.54147 70.40452 77.69376 80.09656 89.10195 97.71708 105.48867 107.27750 105.04756 104.46712 103.20578 101.96964 99.59864 100.39710 98.22902 97.31714 98.05390 99.49110 97.54552 96.05527 96.23964 96.79212 96.53030 98.00961 97.18952 98.19718 98.46604 97.01300 97.35411 96.28684 98.09994 97.58110 96.54958 98.48158 95.89814 95.19382 97.50821 99.22025 97.14322 98.77849 97.51057 97.82174 99.29873 100.29666 100.81725 101.65782 104.28520 103.67631 106.67745 107.60991 110.29758 109.17396 104.42292 98.82800 91.71210 86.84051 78.38308 72.07846 65.56181 59.21393 53.03117 46.11057 46.35115 40.02927 39.31477 36.44075 35.63136 32.50578 31.88781 31.65891 29.29713 30.33908 32.66563 33.81820 30.69880 32.57196 31.15940 29.28568 27.92159 28.49242 27.25338 25.93058 24.81690 24.66908 27.36145 26.13247 24.36591 26.07673 24.17088
25.23396 25.60957 23.59692 24.87389 26.29491 25.41131 23.13590 25.56647 26.08688 24.14044 26.06842 26.01699 27.84194 28.27065 26.83616 27.95525 26.82831 27.63969 29.95345 33.75145 37.37235 38.47452 42.47222 48.78972 49.83240 52.89095 51.97949 54.08310 52.53254 50.02554 55.12291 56.29361 65.89550 70.46275 76.87376 76.62769 86.31287 92.35746 98.65691 102.34221 106.64924 105.82116 105.42050 105.34854 101.39297 101.72313 100.38104 100.24972 98.87301 94.80577 97.24300 97.30342 95.69978 98.50023 96.49599 98.20497 98.93639 95.11329 95.66030 97.99267 97.34884 97.25733 98.18078 96.86207 97.70809 95.01907 97.69479 98.17115 97.66958 97.36401 98.31692 96.70172 96.59379 98.78356 95.14791 96.43278 97.95504 100.02068 100.29893 101.80749 103.72556 105.16933 105.02688 107.73302 109.32780 108.50932 106.26857 97.46989 88.59404 82.23604 72.26489 68.46859 59.01200 57.47879 59.26517 56.17957 51.93100 47.49123 38.83520 34.96356 34.88935 35.71435 33.92439 33.74872 32.80788 31.97300 35.24659 33.72396 33.65511 31.91858 29.55752 27.96251 32.11668 26.15571 26.61447 27.55763 25.55995 26.46529 25.83958 24.35639 25.73056 25.07126 26.49636
27.03999 27.30694 24.64957 25.64991 25.07365 26.06656 25.83155 24.22052 25.33814 25.26469 25.08494 25.40360 27.82032 26.65980 26.91031 26.78719 28.86354 30.18704 28.98686 31.53462 35.04813 39.62967 42.97447 45.35504 50.99009 52.41432 59.91481 60.12208 61.60851 60.22032 61.66045 61.71016 70.70932 79.84423 86.10406 87.28091 97.47028 97.88943 103.92263 106.03380 107.38337 108.78546 105.87262 103.09190 100.56242 99.10354 100.01628 98.35693 98.59754 97.85719 95.82947 97.96807 98.03649 96.63878 97.72949 96.82834 97.18143 97.28000 99.40296 97.24939 96.77872 96.46642 96.75481 97.12255 96.13445 97.85801 95.41499 96.68078 98.62009 98.41996 98.39146 97.54885 97.49309 97.42558 97.42779 96.68283 97.55783 99.55234 98.93138 99.78378 101.82668 103.54608 105.56028 104.58406 106.96125 108.26112 105.13344 98.72349 90.32770 83.99613 79.17640 74.39092 71.56131 66.57572 64.21707 62.46435 55.22512 48.59927 43.52370 38.81328 38.36287 39.46506 38.72169 35.98627 35.94722 34.47869 30.97284 31.23853 29.27006 29.05050 30.19059 25.87066 25.24225 27.06410 24.99223 26.23570 23.68940 24.65093 23.31782 24.63545 25.85783 25.55004 24.43246
24.36142 23.21510 26.35215 24.79641 25.41327 24.98330 25.81549 25.76210 24.88958 27.24134 25.50958 25.85256 24.77459 27.67468 25.66047 29.09339 28.68486 30.50533 30.44828 32.10825 32.60495 37.59173 39.53546 47.33692 53.46211 61.04678 63.66698 66.79450 67.41601 67.60946 67.33828 67.68863 72.28969 80.82228 90.48430 92.06145 100.70435 99.94389 106.89481 108.83435 109.28003 104.60233 103.28699 102.89393 100.48419 100.63437 99.36109 98.49678 97.63394 97.89334 95.38808 96.46437 97.34915 95.62013 96.68607 97.53135 97.19832 96.86152 98.30618 97.73526 97.12491 95.92807 96.54307 96.67965 95.78841 98.06712 95.29845 97.43306 95.72692 96.18249 96.62387 96.47478 97.65723 95.03572 97.50268 97.73023 97.64216 98.80884 99.32158 99.05128 100.44112 100.82122 102.60909 103.82597 107.37905 106.39644 103.68580 101.37464 95.00056 89.78839 89.58495 82.40762 78.07408 73.85854 70.64440 62.48602 54.28146 50.00249 42.93697 44.31771 45.07726 41.79890 42.70271 39.66146 36.98565 33.09704 32.14318 31.89599 28.74176 28.44264 27.73644 26.75745 25.98724 27.54488 25.34785 26.08213 24.63029 25.60864 26.50352 26.13836 25.49624 22.59796 24.73005
25.46630 26.64988 24.04866 27.32631 21.36615 24.96027 24.90276 25.79033 26.21481 25.19215 25.42781 24.95518 26.33526 26.88913 27.60601 28.89152 29.20463 32.77054 34.96797 37.60263 36.63739 41.49368 46.98642 51.95687 54.54090 58.44756 61.76980 62.68685 64.59866 68.21738 68.66258 72.61670 77.42428 85.23007 90.69120 98.58641 101.57564 106.27598 109.16280 108.83911 107.34862 106.65267 102.57407 103.13740 100.46829 97.67888 97.90018 97.92695 96.88620 97.45659 97.07040 97.17364 96.65986 98.86632 96.94318 97.91363 95.88028 96.44759 95.85746 97.11947 96.55447 98.21579 95.59967 98.07165 98.50932 96.87699 96.28194 97.64360 96.12778 95.89230 95.13820 95.47456 96.46347 98.55097 98.08283 96.47525 96.89330 98.27634 98.85190 98.87110 99.24963 102.44951 103.89760 105.87666 107.89858 106.46557 108.95654 103.80751 100.04618 95.56426 93.26575 84.26767 80.13624 75.08948 67.39473 61.67155 57.15286 50.99079 47.29327 47.42020 48.80596 45.96222 43.03947 40.43958 34.33304 34.03866 32.84344 33.06528 30.08540 26.57581 27.64452 26.42332 26.87045 24.82342 25.83435 25.29325 25.61908 24.84266 27.27607 26.44627 25.54689 27.81193 27.16218
25.43246 27.67205 24.47864 26.32244 25.42899 24.14333 25.77037 25.28160 24.57338 26.74121 25.52998 28.46525 27.27716 28.33160 28.68866 31.35132 30.69126 33.24438 35.41433 39.27829 42.17432 45.70867 49.42472 50.38670 51.99160 53.37512 56.93813 59.33294 59.92693 65.59559 63.76625 72.12931 75.74401 82.10412 86.74170 91.27349 102.36340 108.56589 108.91078 108.54091 108.21713 104.47074 105.36750 102.73074 100.63081 98.63492 98.93514 98.52253 97.66933 96.12296 96.89295 96.45267 96.41357 97.67784 98.07896 98.38178 97.35281 97.90342 96.21765 98.56138 97.32293 97.49284 96.20587 94.55615 95.52400 95.20739 95.97326 97.84802 97.25893 94.58175 93.55988 97.77874 97.49521 94.21832 97.38947 97.56221 99.67696 96.52390 97.09799 98.75855 99.40168 102.01152 101.33513 103.22911 107.64076 108.44047 108.64505 106.83213 104.62931 96.66129 92.32364 88.93989 82.40130 78.83421 70.10691 62.12585 59.99426 56.09388 52.50179 53.04804 48.80150 44.48824 41.13966 39.24003 39.28326 36.56349 33.26583 33.06176 30.57156 27.74671 26.88446 26.79069 25.13334 26.79425 24.45761 25.30031 25.44457 24.42382 26.88256 25.16127 25.19804 24.77542 26.04660
24.92019 24.80256 27.12630 25.18346 24.38277 26.24505 25.16040 22.70653 27.02583 24.51394 27.13678 27.18981 27.57929 28.06520 30.08132 31.67763 35.44302 33.50225 37.27558 41.11082 43.46394 45.83506 46.64652 49.00872 47.71029 47.48850 51.45753 52.20235 52.86510 52.30692 59.34856 64.51445 66.02664 72.88792 82.20348 89.28686 98.73617 106.03665 107.59389 108.16352 107.54573 103.72591 103.64500 100.98460 98.23223 99.78680 99.13833 97.34815 98.66904 96.20692 98.02793 98.17452 97.01267 97.23022 99.31828 96.05122 98.49163 97.91900 100.00072 95.60301 95.54331 97.37271 98.69831 94.80785 97.55225 94.43620 95.92428 96.75200 95.38185 94.59292 93.01852 94.63453 94.99861 96.44376 97.25003 97.47465 95.99275 96.81985 98.45476 100.84471 100.09434 102.62891 102.02294 105.25127 108.16028 108.94150 108.78048 108.36565 102.58385 96.70502 91.95901 86.84399 79.74463 69.84197 67.76383 60.44397 59.79100 54.78734 50.59372 46.11198 43.12734 38.14526 37.45686 37.36256 35.52207 33.76729 35.42219 33.11233 29.85438 28.95511 29.21102 25.60908 26.64465 26.18072 25.84011 25.18715 26.16531 25.75288 24.77722 24.53499 25.14466 24.14898 25.33664
24.37171 26.17752 25.29151 24.56149 24.94567 24.37940 25.00955 27.04356 26.07635 25.86588 26.56564 26.60082 26.41123 30.73320 31.75197 33.69104 33.02378 36.42902 39.63539 41.20274 44.01765 42.93248 44.22508 43.06368 41.52018 41.79930 44.17986 41.49277 43.28293 49.09361 52.33012 60.11711 62.97418 71.85069 82.75810 90.56531 99.10978 101.70453 106.94541 107.42973 106.08615 104.33654 102.74690 101.97902 98.80793 99.92133 97.91392 98.45737 97.36637 98.63981 95.52121 98.92063 98.21266 96.29941 96.00452 97.20771 97.61178 96.44012 98.02828 97.01904 96.58806 97.03090 95.45362 95.83964 97.36979 96.22526 95.41467 95.91818 93.62484 90.21816 92.11854 90.47964 95.63556 97.70756 96.94292 97.52399 96.68584 96.17860 99.78272 99.61479 99.88241 100.14838 103.20253 104.66471 104.17217 107.50213 109.23772 106.81028 103.03176 101.46209 88.40312 82.02429 74.26542 68.65258 64.56593 54.69830 51.38423 48.17932 41.46460 38.91336 37.45962 34.92748 33.65168 32.65672 32.93332 31.71891 30.52243 30.38760 28.06682 29.40886 29.64416 29.52512 25.18923 25.47438 26.04104 26.86632 26.83981 25.90525 27.16176 24.57374 24.48980 24.94674 25.84798
25.74070 26.41694 24.49800 23.90068 25.19996 23.70060 25.50128 25.93815 26.36241 29.53455 27.58987 29.72100 29.03018 30.66302 32.17403 32.17006 32.51973 35.38748 37.23124 37.70782 36.42725 41.21455 38.40175 37.30006 35.87286 35.43816 38.32787 41.06212 44.99088 51.60641 57.36320 59.74759 69.91070 74.55169 84.23875 93.18979 98.62597 107.39022 108.28466 109.07702 105.42358 104.16078 102.80238 102.77797 99.14665 98.10354 97.34908 97.15259 96.59627 97.17860 98.42569 98.11309 98.32388 97.38770 96.64444 96.82081 97.22747 96.11303 97.71138 99.02155 96.65942 96.90080 97.44487 95.40407 95.31578 94.55815 93.36092 92.55114 90.68158 92.53100 87.60373 87.39699 90.29240 96.79498 96.38176 97.74182 97.22891 99.93624 98.43900 99.49270 98.37445 99.05243 102.66666 104.07407 104.43518 108.96021 108.32348 107.92438 101.93342 97.87601 90.54986 83.40015 79.52217 71.93166 64.54682 59.85068 50.49646 47.07096 43.42693 38.30632 34.32750 33.86254 30.75634 29.27524 29.04143 26.33023 27.31371 28.72608 28.74472 25.91742 26.77690 26.48108 26.22717 25.94406 26.15304 26.38265 25.63862 25.37706 25.65235 23.73243 26.61782 26.36062 24.69964
25.85962 26.18733 26.37623 25.41243 24.38043 25.42759 24.71637 24.98327 27.62279 25.76300 27.78396 25.77601 29.52183 28.36296 29.19583 30.65228 29.23269 32.02650 33.18175 34.20949 31.56451 33.10628 35.15363 32.75931 33.00105 38.93410 41.30079 40.58857 43.57710 48.47579 54.53971 62.24090 72.89395 76.35664 86.43768 92.75264 100.03102 105.99857 107.58194 107.78840 105.48193 103.60977 102.66467 101.53997 100.16992 97.51934 97.40940 98.11821 98.47688 97.53935 96.07093 96.60613 94.50333 96.44256 94.82763 97.55752 97.82153 97.89445 97.79386 95.10900 96.00981 96.09058 95.58506 94.39577 96.68826 92.81825 94.22734 93.60659 87.45391 84.96354 78.41673 81.19793 85.38114 91.63717 93.14529 96.01999 97.83060 97.02357 98.88592 99.68045 100.03566 102.05312 102.58719 105.35546 102.77350 107.44312 108.72622 107.17320 102.32256 95.04525 88.58236 83.76226 75.27847 62.86062 58.05836 54.14390 51.59066 48.67085 44.42272 40.22720 36.31784 33.18067 31.21046 26.82812 26.57303 26.50908 27.59985 26.90664 28.04328 25.44624 26.71965 27.39183 26.54656 24.97817 26.47947 26.77596 26.69584 26.33898 25.55306 24.92540 25.41258 25.85022 26.12297
25.32323 24.75563 25.74594 26.10860 26.87034 25.39528 26.06688 25.23182 26.75639 27.11324 29.86453 26.83676 28.63658 27.88480 28.04933 27.53585 28.13153 30.03731 31.53757 29.01427 31.61722 31.96743 30.90191 31.57914 38.54709 39.99399 44.19014 46.86309 49.99584 52.15106 59.08667 64.72272 71.78868 79.63344 88.20202 94.04583 100.79689 107.15381 109.38873 108.90484 107.09420 103.93427 100.85805 102.02260 98.46673 98.48639 98.85704 98.13275 96.94724 96.78051 98.28622 98.34677 96.97691 97.64011 97.26552 98.06462 96.72447 97.52267 96.52256 98.04758 97.13729 96.14826 96.24419 96.60104 94.46634 91.50725 89.97069 91.99628 91.61216 87.71424 72.46693 76.94767 79.84214 90.61110 93.77246 92.72112 98.29496 95.68665 96.73462 98.21384 99.40308 99.03491 103.20791 103.00118 106.52379 106.02049 107.18928 106.88144 101.77870 94.44354 84.17947 77.08376 68.59265 61.73744 52.44883 48.09101 41.97442 42.82938 40.35957 38.63969 31.97115 28.69608 29.95866 31.46036 30.56243 29.37349 28.39360 26.65239 26.61858 28.66875 27.25302 27.81559 24.83102 25.93550 24.93041 24.77627 24.45207 25.07427 24.94256 23.54510 25.88365 25.66369 24.47110
23.42494 26.38276 24.78573 25.56404 24.79992 26.06975 24.73317 26.03635 25.00099 26.15170 24.58147 25.76337 28.28922 27.03694 24.97378 28.07739 27.38449 28.20080 29.59104 27.22450 29.87366 29.06197 30.48795 36.24611 41.89922 45.92195 48.69083 53.87602 59.88054 59.74212 66.67146 72.17449 76.72467 84.96026 92.27111 94.07452 99.47673 103.09641 107.36921 107.83770 106.22031 107.04271 102.60149 103.44180 100.08555 99.01413 97.97119 99.41941 98.18650 97.83621 98.33004 96.60838 97.23749 95.87575 96.54997 98.04960 97.04009 97.06958 96.18186 95.89232 97.85352 95.15050 96.84212 97.29129 96.53642 95.25010 87.37631 86.19192 84.29410 88.12622 74.44179 74.97372 86.29753 93.08633 95.80193 95.46653 97.62633 100.42980 98.74498 98.43117 101.55990 100.58028 101.58927 104.35029 105.05921 107.38569 111.10480 109.19214 105.48679 96.23540 91.94017 79.74593 73.30840 68.28080 55.36297 50.24138 46.24098 42.60805 38.73311 35.71642 37.48371 35.81938 37.53664 35.16544 32.89847 30.00943 29.01797 28.76416 27.53844 30.13456 28.08822 27.36667 28.39348 27.69684 27.98765 25.77284 25.76164 27.42637 25.29592 25.12543 24.39299 24.52496 25.28560
26.47793 25.52686 24.56204 25.07052 24.74525 25.41734 25.60298 24.30257 26.11878 26.43793 25.37139 27.22007 25.09235 27.20763 26.41657 26.15239 26.40861 29.81907 29.33290 29.91064 29.88899 32.53085 33.53030 37.92593 42.84772 45.97008 53.54146 57.41757 60.65473 65.92060 68.35929 70.57948 73.95532 82.84634 85.46534 88.74989 94.31907 103.39507 106.91998 107.82454 106.85807 105.18015 102.45542 101.60969 100.89486 97.22611 96.07185 98.91916 98.22177 96.16636 98.68072 97.27758 97.42333 96.50122 96.84906 96.17104 96.94069 96.05978 95.80746 97.65952 96.43921 96.89135 96.73214 97.08193 95.61295 97.54194 94.96765 91.52595 78.93850 76.16574 69.06367 67.19821 78.30065 87.35335 92.73361 94.75209 94.97257 96.81913 98.67494 100.21253 102.17393 101.97667 102.50936 104.89276 106.21337 110.09506 109.48988 107.64666 105.29181 100.65456 93.71538 86.00783 79.49890 79.53037 70.56951 60.34288 47.61101 45.63810 46.10328 45.93344 40.37635 42.83696 39.68671 41.55446 38.40223 34.39563 31.92711 31.63057 29.85289 31.06892 30.07569 29.24773 29.09858 27.70715 27.05649 25.89866 25.18192 23.14538 27.21980 24.12427 25.27615 26.68216 26.00617
26.99443 25.72094 25.07665 26.61438 27.27116 23.68108 25.21141 24.40382 25.80634 25.56804 23.72809 26.79104 24.94884 26.24373 26.16168 26.77777 31.43640 29.83468 33.27275 33.51481 34.27330 35.09896 37.73164 39.97347 44.77678 48.24975 51.86043 55.77836 58.98432 62.96282 64.66375 64.91012 69.74171 69.56387 76.44998 83.57912 89.37859 96.79582 103.25391 105.15628 106.15275 106.09630 102.03680 100.02618 98.69628 99.32666 97.66358 97.59773 97.99431 97.70138 98.50970 96.51812 97.75355 97.39226 97.69732 98.92482 96.73535 96.08258 95.34871 97.75467 95.95026 96.62021 99.34457 97.29763 96.67147 98.53284 96.37079 94.17645 81.50508 72.36446 68.34477 64.45172 67.57978 74.60351 81.35069 84.32436 93.24005 94.72520 95.93394 96.46907 97.89944 100.63292 101.49249 104.96068 108.89517 107.03143 109.62137 108.26983 102.61925 99.09698 95.80162 89.81497 88.32702 77.74299 75.75733 66.81040 59.01076 52.28424 52.75921 48.54737 47.99543 45.63531 44.20891 41.58087 39.06047 36.27347 35.12835 32.25595 31.99625 30.68524 32.43187 29.97587 27.39726 27.89390 27.38023 25.38490 26.93104 24.38195 26.91842 24.31916 25.30537 24.64522 24.88162
22.88348 24.93138 25.75941 25.00880 27.05673 25.86888 25.12510 27.08704 27.25707 27.88810 28.93145 27.16339 26.16930 28.58192 28.29308 28.76813 30.52182 32.87689 34.87365 32.99315 35.77406 35.40145 37.68798 39.68066 42.61123 42.74276 46.22620 47.55629 50.68191 53.59294 56.10330 55.27179 58.82889 66.13128 69.77165 77.71566 84.25232 94.40996 100.72257 103.66768 105.75042 104.54270 105.08114 102.51929 99.25189 101.31569 98.48223 98.01097 98.52821 96.89699 97.58978 97.36536 96.99486 97.11723 98.39625 98.25278 97.98148 95.10550 98.79025 96.76336 97.22252 96.50405 97.07296 94.85996 95.04815 93.05034 86.85267 83.65797 80.67800 78.39710 83.66991 75.00880 63.52390 61.25188 64.62742 77.35770 84.44701 91.22988 87.80704 94.59435 94.85764 96.63486 101.09090 105.84083 104.68915 107.78066 109.63733 103.47048 95.68354 95.42844 89.63337 88.11324 83.11769 76.06912 72.91342 68.55251 62.73398 61.77368 56.75287 53.94075 50.82643 46.51832 43.19964 40.03691 36.31134 32.86692 33.33756 30.68750 30.60721 30.25052 30.11225 30.67676 28.13442 28.87267 27.37019 25.56588 26.83833 26.65642 26.24394 25.03363 24.59994 25.86996 26.39537
24.98938 25.15424 25.63889 26.74618 23.97728 25.30429 25.60084 24.91524 24.70150 26.02931 26.50866 26.63253 29.28315 30.31127 26.98598 31.41356 33.49843 31.27474 31.86755 33.47680 33.21213 34.20712 34.83187 35.14677 35.51491 35.54532 38.68534 43.05282 41.51862 47.41297 52.09022 48.25693 56.08218 60.05079 66.08040 74.38375 83.91913 91.33773 101.55558 105.84235 107.16501 105.54477 102.54664 103.44628 101.98641 97.36651 99.02924 97.65030 98.12638 97.45001 97.76410 97.68195 96.89126 97.44450 95.82951 98.50826 97.19379 97.73077 96.97292 97.44558 95.02000 96.13963 97.18077 94.02798 91.29780 92.43257 89.65189 88.82024 91.72191 86.49409 81.38460 80.13771 78.37074 77.09201 69.02998 58.25028 72.81368 82.10052 83.53830 75.41459 86.97344 96.70998 99.26896 102.68255 106.06137 106.83984 108.98372 99.06202 92.54161 85.27158 81.83530 76.40103 74.83728 70.71553 70.50547 66.46147 63.78688 59.23499 54.65543 49.92428 48.02208 42.39134 39.57712 35.29730 33.69678 30.81964 30.48312 28.59312 26.78390 28.15417 27.89812 28.38705 27.76290 26.28100 27.20303 24.32253 25.89826 27.30963 26.67850 23.62293 24.55049 26.98664 25.59120
26.40615 27.61118 24.78070 26.09153 25.80858 24.11359 23.64480 26.83212 27.22544 25.89002 25.24631 28.06502 27.74427 29.81420 29.89823 30.08104 30.29056 31.42239 30.00599 28.58585 31.52064 30.80815 31.50474 31.97168 32.29846 32.83897 35.24589 36.82975 38.52300 43.20039 47.54207 54.46385 60.66313 62.47325 68.57771 76.97236 84.71350 97.47211 102.85004 105.97314 107.88220 106.43516 104.42859 100.97130 102.81660 99.80105 99.69807 98.37031 96.94804 98.25135 99.16403 97.42069 98.49119 96.62599 95.94674 96.67077 99.19566 97.16313 97.77543 95.65910 98.61452 96.61891 96.82111 94.97054 95.21426 95.12004 93.27397 93.77435 91.14610 88.44416 88.98228 93.04694 91.62584 90.02049 82.72286 65.09739 65.60927 66.63988 61.15170 63.42930 84.24967 92.49548 94.49502 99.19298 104.84733 104.05940 102.04363 99.40619 91.94878 79.09376 71.87887 67.81664 64.57689 61.74170 60.69184 62.60594 58.20101 55.52733 51.86305 50.03130 48.83584 45.40580 43.96480 40.15525 37.76061 34.02783 33.22870 29.79671 28.18601 28.65679 27.30547 25.41234 25.53884 26.22203 27.24283 24.72786 25.84987 27.66639 25.24973 23.88550 23.99074 26.62001 26.42922
26.09327 26.44166 26.56586 24.18563 26.86616 25.57180 25.04136 25.60172 24.44498 25.14142 26.37436 28.68348 27.44845 27.33077 29.03538 30.07364 28.98642 29.93677 27.88154 30.87501 29.87371 29.48008 30.31784 33.18174 34.51420 38.33425 40.99636 40.88064 45.22431 50.07224 54.35039 58.12494 66.91004 71.73018 76.44953 83.49897 89.31791 95.00376 101.84012 107.19563 108.27938 104.62639 106.08501 102.85820 100.34499 100.93475 97.53082 99.69331 98.70340 96.15718 97.57563 97.60845 97.51136 96.16958 97.97764 95.61150 96.98923 97.97552 97.29538 96.46247 95.41339 96.87969 96.07120 97.63697 97.40615 94.90164 94.46524 95.94015 92.51857 91.47508 96.27039 95.57865 93.77474 92.27891 81.86891 73.56089 55.97888 60.92191 57.02896 58.84711 76.93807 79.70648 84.36746 90.02614 92.01846 94.82010 88.91887 88.82359 82.91110 79.16457 68.72022 65.17472 58.95769 53.31821 50.81893 54.43556 54.88740 50.93174 44.87403 46.22509 47.27177 45.43643 45.25095 42.83482 40.18475 36.79821 34.00810 31.89535 31.19261 28.10023 29.38273 25.69155 27.53347 27.44861 27.61128 25.93515 23.57296 27.83464 24.89410 25.26795 25.40237 25.14375 23.60169
23.81461 24.58057 25.38957 24.39577 23.96610 24.52669 25.98861 25.75466 25.26291 24.83057 26.43576 26.96147 26.68063 26.77735 26.89732 28.41523 27.93262 28.11900 29.63814 28.91301 29.99828 32.19056 32.53427 37.40621 40.92626 45.12103 46.64679 49.22992 49.79747 56.83588 60.85779 67.33495 71.56725 79.36350 83.34956 85.04131 90.65861 96.07606 100.18068 102.60487 107.58488 106.72039 106.57388 104.43448 102.29220 105.22025 98.33349 99.70291 97.54163 97.01219 98.21797 97.00762 97.12740 95.18257 96.92762 98.50815 99.54545 96.92803 95.95228 97.51917 97.28175 97.28558 96.68175 97.91999 97.18027 97.64126 95.99890 94.92696 93.55624 95.13073 95.10921 96.75361 96.31945 93.39227 91.07374 80.90017 75.13407 71.50675 60.97576 53.74446 61.29745 55.97679 67.52040 69.43664 76.18973 74.24155 70.33577 68.21057 73.37963 72.30016 70.93184 65.16966 56.83509 47.88299 44.14156 47.37282 42.61607 43.07803 42.12537 41.76022 42.59856 45.03553 44.20438 44.20640 42.35523 37.00483 36.75518 35.23843 31.05931 28.61433 29.64522 25.40017 26.61485 25.85105 25.03714 25.82862 23.54766 24.09979 26.03202 24.17435 24.86648 24.56843 23.54415
23.56161 25.85652 26.65906 25.73711 24.81578 26.56973 25.22651 23.80883 25.74125 24.28916 26.23281 24.96249 26.93862 25.49876 26.74640 25.01989 26.00651 25.92839 28.67210 29.50851 31.37791 35.32598 36.09054 42.19264 45.39702 50.23380 54.11983 56.09702 57.90261 61.67680 66.68482 69.26930 74.26818 74.37039 79.31931 77.57551 81.43323 89.13537 93.13735 100.92212 105.71118 107.69660 108.68784 103.70213 104.42048 103.60299 99.34450 100.65764 99.67736 98.05076 97.54547 99.94064 95.63241 97.64138 97.97501 96.79337 95.00486 95.89366 96.43576 97.96328 94.26879 98.44091 95.26545 96.38295 96.76010 96.77123 96.70527 96.91551 95.94883 96.03987 96.62644 98.51522 97.11525 96.47156 93.82202 86.82161 85.44726 78.38681 71.74079 59.10244 50.29273 43.48273 46.70399 55.53227 59.86636 57.28350 55.44933 47.27104 59.04135 56.60996 60.37913 62.18075 57.37439 53.00195 47.95169 41.85797 40.61898 37.13206 34.39390 32.35322 38.13468 37.88412 38.55026 36.93084 38.47735 39.84938 39.11332 34.15633 32.75379 28.98716 27.00045 25.40783 26.86506 26.02371 25.84218 23.78452 25.65677 25.18171 24.46378 25.09472 25.40529 24.91867 26.68409
25.85421 26.21293 25.53705 26.03546 26.22455 23.95792 24.52141 24.65883 24.96794 27.36196 26.29937 26.73806 26.42765 28.16540 28.45604 26.67943 27.72704 26.35257 29.65325 32.55796 33.33178 35.83625 41.91157 44.69788 47.43596 52.73048 56.33966 60.84323 62.69118 65.21487 66.29760 69.64033 72.98252 70.32043 69.96701 69.37589 75.61528 78.59894 91.78885 97.50090 104.01809 106.44845 108.88264 106.76383 105.89223 103.60774 101.97157 99.10349 100.90767 99.26060 100.77328 99.49567 99.30388 97.08053 97.83993 97.70898 96.13536 96.22075 96.95991 96.56703 99.08049 97.20432 95.86947 98.29842 97.54340 98.50515 98.05987 97.70059 98.46725 98.34231 98.80403 97.42047 95.89949 97.00988 94.73000 98.53428 95.71581 92.23573 90.00624 76.43633 60.46555 56.91968 56.01834 52.60224 44.27273 38.30001 40.58164 32.71278 30.97942 35.15141 47.72565 50.28142 48.16850 50.72787 47.52740 42.18191 37.45392 34.71780 32.64322 29.41668 31.96576 32.49016 37.74217 35.99528 36.40307 39.74366 38.14487 34.94312 30.67316 30.33980 28.30379 29.20692 25.65321 27.16067 27.98921 23.86671 25.24409 27.33719 25.15231 23.32347 25.57974 24.41426 24.32887
22.22766 25.34758 26.12112 26.13109 27.37405 25.42078 25.68231 26.03671 25.54755 27.30920 25.11725 26.58234 26.97868 26.36233 29.49619 28.39247 28.30980 30.86061 31.90731 32.90114 34.47287 37.02149 40.45225 41.79547 47.18150 52.23876 58.86421 58.56970 60.54786 60.45325 60.77099 61.29959 61.24214 60.14857 56.63601 63.11803 69.62684 76.76054 89.92408 99.74063 103.50338 107.54133 108.70392 107.85019 104.95058 104.68264 102.06052 101.85721 101.80054 99.51538 99.53185 99.01485 100.06056 98.27994 96.84015 97.31936 98.33624 94.93652 94.77929 96.16989 96.60413 97.23426 96.70936 95.94089 98.45752 98.02339 95.25270 96.00913 97.34558 98.97242 96.56728 98.07635 97.38638 99.80587 98.28641 99.95174 99.17033 98.57548 93.88430 84.70274 81.23957 82.60880 77.40081 74.85893 72.00095 67.96901 54.55179 45.06817 47.43467 35.93815 34.09111 40.52725 36.89293 37.60036 42.69661 44.05009 41.40855 36.84772 36.14704 30.29838 29.84035 28.40636 29.52159 31.61952 33.04841 34.73488 36.63203 34.13649 30.00995 29.98318 27.42610 25.56823 26.10789 25.94649 26.15236 25.86367 26.70768 25.06757 24.69323 26.00531 25.35291 25.77464 26.24334
26.69902 25.45780 24.76186 25.07323 26.47154 23.83960 25.64091 25.42305 25.93431 24.81472 25.74988 26.69554 27.95605 26.52416 29.09733 28.46928 30.99157 30.09877 30.70891 30.69963 34.20893 36.65485 39.90098 40.53997 43.28648 49.06837 54.42130 56.22867 55.64847 53.64960 54.53547 52.74651 52.92960 54.40920 54.86592 62.29168 71.90047 82.16037 88.67169 97.16210 102.08604 110.10631 106.90258 109.63038 105.56259 105.88045 105.16397 101.71755 101.93731 99.87013 101.19794 100.97667 98.61095 99.41659 97.66354 98.29198 98.40483 96.27955 97.52953 98.22375 96.10512 97.65050 99.50951 96.42872 96.24865 97.15923 97.07866 96.54052 97.06110 98.33021 98.17529 96.86212 97.59715 99.18666 96.61668 100.49201 101.18860 101.31008 100.53853 99.16332 96.48635 97.73359 94.08052 90.17171 90.73120 81.75264 74.85636 63.31542 59.87464 44.88563 32.32200 29.08401 28.12367 34.56254 39.21251 39.56597 39.11469 36.43075 33.74395 30.05858 28.90445 26.31570 26.91085 28.53435 30.77734 32.31700 33.80230 32.04347 30.83123 30.04672 28.78332 28.58203 27.02384 27.08461 26.17407 26.34736 24.90382 24.33319 25.15402 25.54892 25.18365 25.23628 24.06452
25.71598 24.07752 23.24904 25.02752 25.24689 24.48718 26.11154 24.90683 24.95580 26.09682 26.84453 25.52213 26.43237 28.19853 31.23724 30.70640 29.51743 29.44761 31.20043 31.11482 31.60773 31.71853 37.55518 41.34417 43.95956 49.09014 50.92198 50.88468 47.94548 46.40746 45.44123 43.40146 46.11973 50.27629 59.45630 66.30721 72.90421 81.42884 92.16525 94.21804 99.21399 103.33333 108.52321 108.58332 107.98656 105.51881 102.92492 102.16741 105.69970 101.06968 102.74862 99.76192 100.70906 99.50036 96.95101 98.84099 96.21134 97.94280 98.32970 97.07508 98.13977 96.50284 95.31374 98.32415 96.40548 96.56526 97.37855 98.04100 97.18110 97.79913 99.14781 99.24535 101.10632 101.69682 100.18888 100.61183 101.30401 103.50684 104.59558 101.12098 104.36780 103.92178 104.24046 100.50600 98.90556 93.28100 86.49084 73.73470 68.86738 51.77476 46.61115 41.15707 34.63222 30.75152 29.27584 32.31178 32.02870 32.56735 28.04094 31.26116 26.99328 26.65631 25.10553 25.64025 27.24714 30.34781 30.86688 30.91665 30.34523 29.11719 30.40029 29.16629 27.43450 25.77659 24.68587 25.66080 26.77461 24.75191 24.72381 26.52040 25.44356 24.18414 25.42035
26.94313 26.46001 24.95475 26.19998 24.09422 23.93853 24.26690 23.33827 25.16630 26.62229 27.97621 25.10983 27.97109 26.17837 28.12637 29.19541 29.13259 28.33321 28.78689 25.72762 31.53012 35.02514 38.10132 42.72723 45.86781 46.84997 45.61384 44.99064 39.57025 40.26176 40.98913 41.03548 51.41806 55.32700 63.09726 69.59915 76.36946 82.20324 87.06319 90.37830 98.70046 102.34944 105.23733 110.82593 109.32959 108.36371 104.31131 105.17790 101.07235 103.20940 101.22464 99.51296 99.57457 100.33726 97.65668 99.18647 97.22544 98.78561 99.55070 99.70891 98.72350 98.03656 98.65389 98.87842 96.87325 99.98693 96.26165 98.25369 97.64394 98.50445 97.59060 98.47504 100.52787 100.07088 100.29029 100.81836 102.23453 103.24532 103.89731 107.38622 107.96707 108.49847 104.97493 103.73987 98.29366 92.39655 85.64714 78.24281 71.31916 68.80027 55.62036 48.79980 47.03145 42.15144 35.60754 32.56203 29.75520 26.00987 28.21456 25.61567 27.15139 26.85822 28.81345 24.53319 27.67775 27.58368 27.82555 29.79902 26.38034 29.93750 27.26410 28.35593 27.56883 26.70991 27.14843 26.11516 26.26587 23.90762 25.52446 25.60916 26.48601 25.63757 23.97731
26.41072 25.55397 25.21058 23.62395 24.49305 26.14456 23.75898 24.93863 27.32568 26.28794 25.20462 26.47427 28.10206 27.22434 27.60384 27.26526 27.57407 27.00034 27.42193 29.27559 33.99699 36.88093 41.37540 43.64463 43.31570 41.98485 42.22981 39.53576 35.35174 37.43446 42.50562 47.33703 58.65864 64.35710 68.95023 73.51113 77.76340 76.99405 79.80608 81.13240 91.08855 95.47647 105.25182 106.95323 109.38407 108.11084 106.80363 106.33940 104.28738 105.09094 101.92683 100.53706 103.01811 98.77977 99.17558 99.86723 97.48416 100.12203 99.39332 97.85069 98.86608 97.76843 97.63429 98.07572 98.39061 100.99544 98.85052 98.62214 98.14419 98.20286 99.41142 98.41446 102.84393 101.53400 103.02639 101.69809 104.15444 104.18900 105.63314 108.31337 108.83339 108.43777 103.07001 99.77453 91.99079 86.42026 81.14770 77.11518 74.65672 70.47285 66.27960 61.72548 59.57658 49.24968 44.38625 38.53519 31.08273 31.00160 30.10449 27.91147 30.14310 29.97147 27.73857 27.14177 26.26924 26.20741 28.38624 27.35545 26.22633 28.64672 26.94240 26.86939 27.41182 28.13983 24.32666 25.01433 26.82105 26.64449 25.17233 26.06589 24.14612 24.31226 24.57741
23.46623 25.75042 24.16616 25.53672 23.78689 25.40578 24.96325 25.42105 25.47360 27.36031 26.63480 26.92503 26.83690 26.74015 27.77023 27.06487 26.76790 29.32312 28.94183 31.58553 35.07238 37.70824 38.66541 40.49794 40.77203 38.71303 39.39497 34.19342 36.09070 39.21812 47.22152 52.68127 60.43502 64.45361 68.45976 71.57986 72.30847 69.80453 74.63225 79.91625 85.40986 97.13874 104.34958 106.52203 109.53661 109.06991 107.33801 109.36769 108.88857 106.55458 105.73027 103.53514 104.33128 103.15775 101.82358 99.14255 100.01464 99.71277 99.88394 98.59434 99.87546 99.14648 99.06417 100.12388 100.42696 97.16220 99.80848 98.35106 99.86795 97.95212 101.75945 103.91709 100.19599 103.30518 104.62333 106.92648 106.94125 106.58100 107.78255 108.47837 108.64698 104.62018 101.85741 96.16696 84.19436 76.71711 74.11036 68.97534 66.99565 65.92521 67.05287 63.73180 60.86888 56.01792 50.32837 39.35712 36.39815 36.75341 37.51924 35.60684 36.25469 32.10395 31.74612 28.01679 26.38539 25.11652 26.68959 24.69992 23.80564 26.36704 26.64303 24.59726 25.77014 27.21490 25.49197 25.19654 23.59872 25.00239 27.23720 25.84073 24.84699 26.38512 24.32381
24.72504 24.91621 25.40175 25.05633 26.47383 25.14379 25.00929 25.50061 25.35035 24.50172 27.22852 26.45769 24.88823 25.36669 26.29137 25.84376 24.87448 28.38552 31.49617 32.62794 32.95495 36.46364 37.17441 36.82994 37.41052 35.25940 31.48927 31.79487 37.70213 42.09437 48.48726 50.95501 59.42593 59.38890 63.87819 64.22021 64.24371 66.18969 74.79806 81.36371 88.62563 94.37138 98.76643 101.83702 106.82075 108.44837 106.71530 108.37616 108.30280 106.57432 106.04861 103.92307 103.05787 102.77068 101.76339 99.18559 101.60779 99.95055 99.31282 101.05093 100.63837 100.30277 100.50173 100.00149 99.96777 100.05363 102.04196 99.49721 100.79123 101.87480 101.86412 101.99846 105.28685 105.35959 107.49285 108.38130 107.19101 107.41720 105.97876 106.20983 103.75771 101.83525 96.30514 91.63284 81.83704 72.78314 66.83669 62.96647 59.14134 59.38907 58.46210 59.27315 60.84276 57.16210 48.76683 45.53412 40.83030 42.11850 41.19784 39.03848 38.38376 33.65185 32.08896 31.19540 27.74971 25.62207 26.29358 27.56452 27.32743 24.25452 26.30165 25.91615 24.02378 24.86684 26.05427 23.76023 25.40981 24.22864 23.67456 23.43894 26.13071 24.44591 25.79387
25.70969 25.12296 24.84246 26.45442 25.04592 25.94721 25.11816 25.31037 25.35716 24.17256 24.63606 26.89635 24.95909 25.72648 25.87771 25.52097 27.27618 29.41818 29.55699 32.66361 33.63932 33.68860 30.01846 33.61558 33.06053 29.46250 31.17369 35.19284 39.43047 44.30956 46.29233 49.26955 51.41775 53.78080 52.99486 54.78205 62.84993 70.63708 76.43098 79.25546 84.83585 90.16485 93.91501 96.19542 100.64758 106.28745 102.90924 108.44779 107.87952 108.01365 108.79445 106.44479 105.23792 102.63398 103.72153 102.44677 103.05816 102.12765 101.89238 102.11396 100.42467 99.96250 101.90539 103.04311 101.49689 100.73781 99.29448 101.26316 101.76933 102.46914 99.93979 103.08888 105.53707 106.55638 107.47764 104.61149 108.29266 107.39982 105.76431 98.55306 98.35710 92.85121 92.94628 87.07854 84.78757 74.89489 65.65725 56.25592 51.18120 55.01780 50.83756 51.94659 51.51881 52.42467 55.28205 50.03500 48.15452 47.84114 46.26901 45.13838 41.98172 37.25689 36.07544 34.35945 30.22722 31.01274 27.22362 28.69465 24.07328 25.62534 27.53491 27.06669 26.04394 24.55013 23.29876 23.76976 27.39024 25.01652 26.14093 24.28107 24.57319 23.33774 24.61585
28.20092 24.94647 26.03945 27.15707 25.74482 25.22967 26.67203 25.19578 25.04444 24.24158 24.79155 26.71933 26.21867 26.14146 24.77512 26.28562 28.23499 26.44962 29.62963 29.42741 31.53194 30.80380 28.26154 29.90687 30.38159 30.52676 32.73028 38.39404 39.17777 42.55292 40.27783 39.73376 44.01946 47.33044 54.08822 60.81036 64.35385 72.17510 72.91687 70.69500 74.43729 84.82239 85.20630 94.91973 97.42139 99.49610 98.15227 103.44565 103.47137 104.24978 106.35109 108.56573 106.63438 105.93894 104.43216 104.78704 104.54276 103.84644 102.87619 101.20361 100.01060 102.90614 104.12617 103.90238 101.77203 101.63678 101.37367 102.80917 104.04263 105.64605 103.71664 104.91326 106.92551 107.51153 108.92515 108.32922 108.97342 107.00713 103.16385 97.59996 90.31923 88.99365 83.53720 81.96510 79.51093 71.96860 63.30869 54.73307 50.25824 45.20319 45.22394 45.90547 45.30684 47.95474 52.17030 53.81150 51.98302 52.15091 49.80006 42.96516 42.59560 39.16476 36.73543 33.22029 31.65798 30.05004 30.10844 29.44853 27.96840 28.11137 26.87951 26.52677 25.41678 26.04573 24.37455 25.88128 25.21651 26.52763 25.20536 26.48459 25.91194 25.93764 24.39773
25.90947 24.51092 25.21853 26.54288 24.67290 25.25994 24.32780 24.25418 24.08966 25.32133 25.06540 26.22321 26.62906 26.32431 26.51766 26.82805 24.96774 25.71435 27.38494 28.67300 28.67683 27.96237 28.20433 30.02794 30.54879 33.31250 35.03515 36.54494 37.40337 38.35188 40.02647 41.02170 46.75023 49.87213 59.51533 63.60105 70.28683 71.97226 72.47538 68.25828 66.69355 77.65069 84.37864 88.03461 90.49295 85.46879 92.38187 95.45109 99.26675 104.57634 107.50367 105.29890 106.23948 106.61693 105.53497 106.56886 105.87876 102.58097 102.91710 106.19241 104.99110 105.23767 106.02948 102.32073 104.71935 104.86064 105.25101 109.06594 105.92390 104.95740 107.13810 105.83826 106.42760 108.30052 108.45277 107.27818 107.08253 104.11391 98.15308 91.33369 84.20040 76.44323 77.37697 75.92648 72.85056 67.86584 60.10908 49.76429 46.33342 41.78044 39.40133 38.71391 38.62392 40.40892 45.48438 45.34119 50.49647 51.59707 46.19456 40.85845 38.21857 34.76851 32.76131 34.54629 30.98067 30.94034 29.22558 30.11202 27.85207 28.27686 26.96526 28.02140 26.07335 27.83088 24.00382 23.54980 23.86765 25.49738 25.13590 24.26844 24.82406 23.38231 25.11462
25.49685 24.59233 24.08640 23.50632 25.22218 24.96928 26.24172 26.66845 24.91449 26.92742 24.23961 26.31627 26.70302 24.65239 27.75123 26.16466 25.57051 26.76325 25.40325 25.67537 26.64590 27.37826 27.48383 29.19505 32.18195 32.62176 34.08505 34.77614 32.80900 35.82093 37.25289 39.30708 50.01859 57.19551 58.86824 65.03677 66.01208 66.92050 63.39618 62.43613 67.46841 77.54787 80.02276 78.91194 77.20119 74.96961 84.62979 85.85493 93.01993 99.85250 104.07344 107.48221 108.67486 107.11506 109.94154 106.17676 109.34886 107.67452 107.54931 107.13432 104.81041 106.31789 107.20767 106.85808 104.85089 104.24641 107.58463 104.72447 106.25210 106.05556 108.34532 109.36402 109.64279 108.12483 107.82665 107.97280 102.26024 100.78364 96.69525 90.79170 81.28653 73.10305 68.38433 67.95191 68.61296 68.06743 57.52266 54.96137 47.85926 41.38157 41.08522 35.90077 36.30171 35.73458 38.07215 41.41050 45.53674 45.26290 42.23277 39.55840 33.45829 33.56524 31.27433 31.48081 28.90656 27.93327 29.88911 26.08052 27.11129 26.33710 26.86226 27.20798 24.60947 26.63702 26.82089 24.82042 26.04216 25.17531 24.80887 24.98803 25.03962 24.79060 24.31129
26.34861 25.68180 21.85119 24.40682 26.12426 24.43462 25.67457 24.11889 25.23180 24.79689 24.65231 26.55186 25.48712 26.25959 25.57392 25.25612 27.22610 26.40732 27.18156 26.77008 27.55634 29.96022 28.58214 29.34451 32.07704 32.25021 32.52474 30.68300 32.76887 36.14346 39.68981 42.87119 51.35419 59.34157 61.74931 62.96798 57.02758 59.08145 54.69212 59.04294 72.61179 72.42097 71.72341 68.39953 63.47536 69.01532 73.08090 79.10075 87.07916 95.92284 103.83689 106.23770 107.68844 109.85304 109.11874 110.47697 109.76418 109.20095 107.73975 110.05557 107.85595 108.26200 108.75233 107.11394 107.55232 107.27058 108.34406 106.64729 105.45365 105.05111 106.86978 106.61632 107.63671 105.15746 104.32629 103.32716 97.48079 94.06118 89.20075 84.84590 79.33869 69.48696 60.54897 60.93855 65.18100 66.42619 64.00995 59.98959 52.72372 49.57182 46.11819 37.64781 34.06652 34.01840 36.28351 38.31690 41.85116 45.05917 40.99420 38.82290 36.62155 33.41849 29.72549 32.00648 26.94006 25.74953 27.50671 27.19139 25.95879 24.55716 26.65035 25.80991 26.24918 25.26093 25.35582 25.82158 25.56838 25.93088 25.13107 25.02163 24.55618 24.53490 24.51209
