-506.15803 -500.61156 -498.61711 -493.64559 -488.81269 -486.41557 -477.56148 -474.01894 -472.44933 -467.69670 -458.95409 -453.55686 -451.06988 -449.00022 -443.12899 -439.40730 -433.22596 -431.03822 -426.00272 -423.43068 -415.68624 -413.26156 -409.11594 -404.96029 -402.25312 -398.07304 -393.69278 -388.33457 -384.55938 -381.38147 -379.91425 -374.43647 -371.87736 -362.42405 -361.25411 -359.65844 -356.12429 -350.57034 -348.11654 -343.20617 -339.79551 -338.25428 -333.52827 -330.33770 -324.79003 -322.34045 -318.63151 -316.40652 -312.04207 -307.52039 -303.91301 -302.84567 -299.58848 -296.16702 -294.56811 -288.82008 -286.24391 -284.89065 -280.56366 -275.20174 -273.39725 -270.62000 -269.64487 -265.56060 -261.91566 -257.85429 -256.48318 -252.54538 -249.99449 -249.25940 -242.27050 -240.88871 -236.86021 -235.63421 -230.19618 -228.83257 -225.09106 -224.54445 -221.80308 -219.11336 -215.01991 -214.34860 -211.10387 -208.29516 -206.74934 -203.17153 -201.76423 -198.61124 -196.72402 -194.41044 -190.55454 -186.47881 -185.88664 -184.65231 -180.69042 -180.08710 -177.71322 -174.39869 -172.02708 -170.48781 -168.30551 -167.48853 -164.57575 -162.92185 -159.95232 -157.65844 -156.77860 -154.05886 -151.67664 -149.08988 -148.16254 -145.64793 -144.29404 -141.01130 -140.02310 -138.82515 -135.27932 -133.84383 -131.23024 -130.25694 -128.32585 -127.57367 -125.90795 -122.99608 -121.59293 -120.67261 -118.08369 -117.92551 -116.36663 -116.12199 -112.38407 -111.62748 -108.94480 -107.55233 -105.28589 -104.17114 -103.47959 -100.76980 -100.57216 -98.75255 -96.88894 -96.10857 -94.16373 -93.38412 -92.74463 -92.30591 -89.94888 -88.58572 -88.27180 -87.27003 -85.93774 -84.42850 -83.78708 -82.11673 -80.28483 -79.97094 -79.66749 -79.04762 -76.11406 -75.87104 -75.30210 -74.29627 -73.69233 -72.10724 -71.54752 -70.39893 -70.53263 -69.41894 -68.54362 -66.53909 -66.52631 -65.24715 -64.43812 -64.50507 -62.75578 -62.91723 -62.23091 -61.93159 -61.06588 -60.46223 -60.28912 -59.10502 -58.78602 -58.05686 -57.88733 -57.48016 -56.51493 -56.71192 -55.87033 -55.46110 -55.78508 -54.87584 -54.84396 -54.81300 -55.04709 -54.61309 -53.69867 -53.75397 -53.30167 -52.87480 -53.20947 -52.10151 -52.33539 -52.43168 -51.34739 -51.25799 -50.99882 -51.48047 -51.48365 -51.44718 -52.02939 -51.98579 -52.44854 -52.48660 -52.11918 -52.37332 -52.27677 -52.68990 -52.82696 -52.89626 -53.30914 -52.95050 -53.41655 -53.38397 -53.66275 -53.73225 -54.68523 -54.82437 -55.52391 -55.48950 -56.03984 -57.77557 -57.15682 -57.73606 -58.08446 -59.19638 -58.84216 -59.51360 -59.57012 -60.17015 -61.07336 -61.87725 -62.76329 -63.11492 -64.04109 -64.34617 -64.61548 -65.31394 -66.50292 -67.54472 -68.22602 -68.96878 -70.32821 -69.94266 -70.89937 -71.52527 -73.25287 -73.62954 -73.72896 -76.21203 -76.21153 -78.20823 -78.77320 -80.62363 -82.20493 -82.78597 -83.76747 -84.88953 -85.88748 -86.79121 -87.38678 -88.44515 -90.17976
-508.12039 -506.00278 -499.56886 -495.67434 -490.11743 -486.84245 -480.25324 -474.65256 -473.11689 -468.11085 -460.59911 -456.55341 -454.39243 -448.01019 -444.53973 -443.21547 -437.37601 -432.42858 -427.31751 -424.85498 -420.32365 -413.21506 -410.50331 -406.75008 -403.43497 -399.76971 -398.56559 -391.98450 -387.21611 -381.92365 -380.07222 -377.81978 -372.95116 -366.49427 -361.61834 -360.84122 -357.87020 -353.76047 -348.57978 -344.32396 -342.59413 -338.90037 -336.56093 -330.66483 -327.38489 -322.92914 -318.04493 -317.30447 -315.72405 -309.67326 -307.70562 -304.75387 -300.86485 -297.34446 -294.69861 -292.14352 -287.08969 -286.27354 -281.58474 -278.85372 -274.64099 -273.57610 -269.70500 -266.06822 -262.91965 -260.12970 -257.84555 -255.22795 -251.32576 -247.76686 -246.19923 -241.37793 -240.60298 -239.97539 -235.32106 -231.64813 -229.01109 -225.19259 -223.71305 -219.84918 -216.64349 -215.21533 -213.14907 -210.11295 -208.53262 -205.83621 -202.03335 -200.62820 -198.89217 -196.61090 -193.44950 -189.55646 -187.22794 -185.35737 -183.07519 -180.97418 -180.09654 -177.36673 -175.09481 -172.07701 -168.94539 -167.97333 -166.74119 -164.06218 -160.85328 -158.64899 -157.89608 -156.17286 -152.86489 -149.60967 -148.77821 -146.63216 -145.95269 -143.30565 -141.08577 -139.49579 -137.13748 -136.45370 -134.19633 -131.70823 -130.24823 -127.67331 -126.41434 -125.94595 -122.85235 -121.72162 -119.77632 -118.94130 -118.31869 -115.65823 -115.16533 -112.26462 -111.15955 -110.19380 -107.82459 -107.22676 -104.24815 -103.66597 -103.27029 -100.62901 -99.92463 -99.11118 -96.66950 -96.02020 -93.64565 -93.14823 -90.30779 -90.57421 -88.54407 -88.14890 -87.00165 -86.14916 -85.57132 -83.98460 -82.37526 -82.21712 -80.39585 -80.12989 -79.30986 -77.73795 -76.76260 -76.39463 -75.11462 -74.26596 -73.70651 -72.25973 -71.10065 -70.75624 -69.52241 -68.96899 -67.68171 -66.91273 -66.36314 -65.64832 -65.16043 -64.86597 -64.44387 -63.83604 -61.91719 -61.91952 -61.65600 -60.89742 -59.09120 -59.50246 -59.75389 -59.44184 -58.68122 -57.25880 -57.76982 -56.84103 -56.79719 -56.58988 -55.43050 -55.83353 -55.48233 -55.41139 -55.38372 -54.57973 -55.14418 -55.05172 -53.98104 -54.67072 -54.54365 -54.90181 -53.49704 -53.35317 -53.69009 -53.64176 -53.51346 -53.59682 -54.50388 -54.12414 -54.21414 -53.28967 -53.30643 -54.25932 -53.38325 -53.79961 -54.73123 -54.70758 -54.19115 -54.74926 -54.37709 -54.55630 -54.00523 -56.51892 -56.80931 -56.25106 -56.11760 -56.91083 -56.60664 -58.28101 -59.18036 -58.70657 -59.79265 -60.04304 -60.65230 -60.02868 -61.62898 -62.35739 -63.40782 -63.79161 -64.18018 -65.22100 -65.26030 -66.37746 -67.10688 -68.25957 -68.64816 -68.52790 -71.28976 -71.38724 -71.72397 -71.81518 -72.80022 -73.68575 -74.30280 -75.87094 -76.42303 -79.24158 -80.05441 -80.71335 -81.03595 -82.05397 -82.82152 -83.43391 -85.15279 -85.98473 -86.21716 -88.61454 -89.69078 -90.15769 -91.31787
-511.97859 -506.44153 -499.94595 -496.46077 -491.88626 -486.89490 -480.29220 -478.68760 -474.54868 -469.38354 -466.56116 -459.36343 -456.08816 -450.90632 -446.43797 -442.92591 -438.67245 -433.44301 -428.90321 -426.81777 -421.16924 -416.45860 -410.59751 -406.65162 -403.71903 -402.33978 -398.99264 -392.75459 -390.49447 -384.41013 -382.45245 -379.67776 -373.71885 -368.35540 -365.78032 -361.43355 -359.30909 -354.40509 -350.43850 -347.61450 -343.60332 -342.25210 -338.05705 -334.37916 -328.50685 -324.73040 -323.29956 -318.31850 -317.92782 -313.07879 -309.18709 -305.40975 -303.50983 -299.88730 -296.21698 -291.57077 -290.06068 -286.26789 -284.79880 -279.87607 -276.35684 -274.05194 -270.67378 -267.52519 -263.73581 -260.17247 -259.57411 -255.93522 -253.84288 -250.71893 -247.49748 -243.92058 -243.10366 -240.17288 -236.16514 -234.89835 -229.93614 -227.82438 -226.60852 -222.64598 -220.35943 -215.78208 -213.97302 -211.23302 -209.99499 -205.70140 -204.15943 -203.69832 -200.28553 -198.15222 -194.08136 -191.09256 -190.30101 -187.38451 -185.49413 -182.17995 -180.71262 -178.34007 -176.02048 -175.02656 -171.70595 -169.13614 -168.00765 -165.49413 -164.06959 -160.74633 -158.41977 -157.38213 -154.07951 -152.97936 -149.60698 -149.03869 -147.38133 -146.05105 -143.17999 -140.94512 -140.28518 -137.79824 -135.73699 -134.31632 -133.36914 -130.48157 -129.27682 -127.72243 -124.12400 -123.17613 -121.21053 -120.83344 -119.13055 -116.29697 -115.32119 -114.15585 -113.06707 -110.98614 -110.06672 -108.24718 -107.84640 -105.37872 -104.52596 -104.32388 -100.99849 -100.15746 -98.62602 -97.01810 -96.46329 -95.68548 -94.65560 -91.67578 -90.09504 -89.92682 -88.70449 -87.99449 -87.17196 -86.84251 -83.86704 -83.01695 -82.19475 -80.69095 -80.48316 -79.52350 -78.82284 -77.23279 -76.71864 -74.95158 -74.67967 -73.66771 -73.39440 -71.94254 -72.37056 -70.88692 -70.35368 -69.23969 -68.66983 -67.75290 -66.59941 -66.19933 -65.39737 -64.80793 -64.12050 -62.52565 -63.13834 -63.61568 -63.03572 -62.14584 -60.80636 -60.32997 -59.39930 -58.75388 -58.91768 -59.08953 -58.64985 -58.80198 -57.91086 -56.28326 -57.00141 -57.39708 -57.62618 -56.67109 -57.51013 -56.94996 -55.88698 -55.81663 -55.56186 -55.20888 -55.72044 -55.54006 -55.66572 -55.41026 -55.28063 -55.52534 -55.14523 -55.33942 -56.53107 -56.33753 -55.66799 -56.49609 -56.38623 -56.05124 -55.26511 -55.72665 -56.15867 -57.29203 -57.02945 -57.59530 -56.76311 -57.72101 -57.53717 -58.57790 -58.31975 -57.27127 -59.02756 -59.14720 -60.00641 -59.88636 -60.25437 -61.17668 -61.63960 -62.37635 -63.65461 -63.72494 -64.40942 -65.76176 -65.82689 -65.92795 -67.64884 -68.52689 -68.08986 -69.40761 -69.64544 -70.89446 -72.66395 -73.34667 -72.97105 -74.10029 -74.58066 -75.83139 -76.07336 -77.44380 -78.86990 -79.61190 -80.82020 -81.70228 -81.69847 -83.02450 -84.48328 -85.65169 -86.10062 -88.48571 -90.65679 -90.88851 -91.14748 -92.94757 -93.22226
-512.74728 -510.26351 -503.78836 -497.21632 -492.41535 -490.34068 -484.29694 -478.91278 -475.51333 -474.02179 -465.76996 -463.24377 -456.45894 -454.42040 -450.09210 -443.52777 -438.45652 -436.82515 -433.89788 -430.39229 -423.47753 -417.03439 -413.59009 -409.99466 -406.29519 -403.14814 -400.74185 -396.59170 -390.66998 -385.38962 -384.13136 -378.65766 -376.28792 -371.58395 -369.13547 -364.18036 -362.12836 -357.86058 -353.60825 -349.64125 -345.11533 -342.47111 -340.58861 -336.29321 -331.38276 -330.77822 -324.56621 -319.90517 -318.17581 -314.60347 -310.53262 -308.62168 -305.22641 -304.22089 -300.53483 -292.88447 -290.47367 -289.02770 -285.15577 -282.92308 -279.34261 -276.47211 -272.54500 -267.91762 -265.23400 -263.54597 -260.38442 -258.31800 -256.36493 -252.90536 -248.05134 -244.51243 -243.27875 -241.50637 -236.34335 -235.13620 -231.06067 -229.75899 -227.17453 -225.40509 -222.18589 -218.33984 -217.09187 -213.48121 -210.29661 -208.89177 -205.73288 -204.29738 -201.82277 -198.04507 -196.99668 -194.65892 -193.92909 -188.88624 -187.74609 -185.77711 -181.00025 -178.32760 -177.89212 -176.65603 -172.60100 -170.38685 -169.21280 -168.16085 -164.92035 -162.25674 -161.16016 -158.52964 -156.61133 -155.36190 -150.98049 -150.60960 -149.70546 -147.41723 -146.16590 -143.71708 -140.93463 -139.54940 -137.53418 -137.24455 -134.57968 -133.55548 -131.56885 -129.49610 -129.45658 -125.04487 -122.31243 -121.99515 -121.78426 -119.26737 -118.30545 -115.31880 -114.05798 -112.94234 -111.49250 -110.76469 -108.97979 -107.99994 -107.10330 -104.64877 -103.82849 -102.62509 -100.10680 -99.14126 -97.17216 -97.37085 -96.48615 -95.84742 -93.10376 -91.12232 -90.75487 -90.06940 -88.06791 -88.22280 -86.42724 -85.12883 -84.57419 -83.08118 -82.15464 -80.39564 -79.57987 -79.01542 -77.44540 -77.06471 -76.63400 -76.22517 -74.37507 -74.29125 -73.63636 -73.69422 -72.14892 -71.33142 -70.62391 -70.00108 -68.82540 -68.54836 -67.30993 -66.97674 -66.57266 -64.81082 -65.27593 -65.71627 -64.69970 -63.05576 -63.09221 -62.44642 -62.36377 -61.29975 -60.79553 -60.74923 -60.70004 -59.97697 -59.14471 -59.76355 -59.29720 -58.62019 -58.10089 -58.42111 -58.01318 -57.77839 -57.50012 -57.47363 -57.37415 -57.30946 -57.15530 -57.59521 -57.36428 -57.00454 -57.45378 -56.76462 -56.67128 -56.65654 -57.01069 -56.87033 -57.67016 -58.14368 -58.02480 -58.10984 -57.01384 -57.80648 -58.59940 -59.33968 -58.25820 -59.41531 -60.56151 -59.71809 -59.85454 -60.01118 -61.16454 -61.67476 -61.71364 -61.52878 -61.99705 -62.33186 -62.34558 -62.77313 -64.23841 -62.89854 -64.05608 -65.87652 -65.98155 -66.20065 -66.98745 -68.24276 -69.98987 -69.61586 -70.21276 -71.66573 -72.09950 -73.16806 -73.31302 -73.72906 -73.67778 -76.32311 -77.11717 -77.35346 -78.32979 -78.39341 -80.89869 -80.83479 -81.96942 -82.80746 -85.16015 -85.64676 -86.03607 -86.64299 -87.15478 -88.85944 -91.14059 -91.69279 -93.18036 -94.91731 -96.53955
-516.68709 -512.05569 -505.39190 -499.84171 -492.67634 -491.53816 -486.98371 -480.96916 -478.65497 -474.57378 -469.69818 -466.90908 -458.84890 -455.78740 -454.19906 -443.87173 -442.34313 -438.69658 -436.59703 -433.01853 -425.34137 -419.16640 -418.30946 -413.24537 -408.85387 -403.43745 -402.44596 -397.37146 -394.23842 -387.10666 -384.02661 -382.11177 -378.41371 -374.31128 -372.82747 -365.80458 -363.01277 -358.41665 -354.57005 -349.28906 -346.90819 -345.85240 -342.50799 -337.63435 -333.94459 -330.96923 -327.70853 -323.31770 -320.59305 -316.82869 -312.63728 -309.13691 -308.34097 -304.09682 -302.00921 -298.10656 -294.52652 -289.58536 -287.20938 -285.46027 -281.87363 -277.41442 -273.61769 -272.67621 -269.00192 -264.50360 -262.71438 -259.40400 -257.50570 -253.67177 -251.75235 -247.47744 -245.87971 -245.03128 -240.43010 -235.21620 -232.73688 -229.94925 -228.83778 -227.29555 -222.65747 -221.55747 -218.60785 -214.59527 -212.07381 -210.03163 -208.04936 -206.32218 -203.31736 -201.72599 -197.91505 -195.19450 -194.98782 -191.33522 -189.91924 -188.79335 -186.29999 -181.31601 -179.16012 -177.58648 -176.65120 -170.49110 -169.19236 -168.81327 -167.26888 -165.09072 -163.64140 -161.16655 -158.94061 -157.74675 -153.38374 -151.79179 -150.25387 -148.74597 -147.18697 -146.19343 -143.42186 -140.37135 -138.18153 -137.69103 -135.87078 -135.85109 -132.58961 -130.89532 -129.88865 -128.83431 -125.06007 -123.53304 -122.61532 -120.96488 -119.18635 -117.68611 -116.04221 -114.69391 -112.34410 -111.81401 -111.12501 -108.49529 -107.80363 -106.57293 -104.19536 -103.74555 -102.59587 -99.94061 -98.86597 -97.99658 -96.61167 -96.12515 -95.48994 -93.20354 -92.70058 -90.90154 -89.56370 -89.20752 -88.01580 -87.84334 -85.91816 -84.98013 -84.12724 -82.56022 -81.92279 -81.80950 -79.96048 -79.23299 -79.03412 -77.28923 -76.32745 -75.53873 -74.49816 -74.18069 -73.98120 -72.88329 -71.27477 -71.19957 -71.02687 -70.36072 -69.60594 -68.94616 -69.00172 -67.85005 -66.65799 -66.24162 -65.72880 -65.61829 -64.86156 -64.95704 -64.95055 -64.45789 -63.66366 -63.27174 -62.49412 -62.27157 -61.64054 -60.36193 -59.81231 -59.52063 -59.35628 -59.23741 -59.25260 -58.93014 -58.07230 -58.02122 -58.37651 -58.53355 -59.17302 -59.60874 -58.95936 -58.91265 -58.33063 -58.16515 -57.18375 -58.92018 -59.04175 -58.61657 -58.95371 -58.71635 -59.26081 -59.08838 -60.82621 -60.26106 -59.90922 -59.92135 -60.76358 -60.97580 -61.08701 -61.05592 -61.42059 -61.46572 -62.00358 -64.04884 -63.24001 -63.78816 -63.79711 -64.32552 -64.54377 -66.34003 -64.88233 -66.98238 -66.83999 -68.79066 -68.64693 -68.57677 -68.90614 -69.80858 -70.98417 -71.51613 -71.55499 -72.36743 -72.90968 -74.51223 -74.66028 -76.43253 -76.36773 -77.34530 -77.93745 -79.68692 -80.10007 -81.61876 -81.84421 -83.37631 -83.85322 -84.72680 -86.06461 -86.71236 -86.78568 -86.95243 -90.07540 -91.81517 -92.40218 -93.68482 -94.32887 -96.12128 -97.21246
-517.39248 -513.67936 -507.52085 -504.84500 -497.88372 -492.18538 -488.08262 -482.63122 -478.78702 -476.14439 -470.26139 -467.58382 -463.72718 -456.05944 -451.71574 -449.73922 -444.34197 -443.37779 -437.73764 -432.56133 -427.88342 -424.13178 -420.00829 -413.75968 -408.64869 -407.09153 -403.75627 -399.16918 -396.98316 -386.86925 -386.06351 -383.11362 -379.24445 -375.47512 -372.46943 -369.39794 -364.25891 -360.42617 -358.64470 -354.03535 -348.74096 -345.99881 -343.53696 -340.70095 -336.05306 -334.85640 -329.18530 -326.13302 -321.63947 -317.86534 -314.12641 -310.86462 -308.32769 -305.44637 -300.67357 -298.64147 -295.02018 -291.69662 -290.53279 -286.94021 -283.00256 -278.98963 -276.13762 -274.03969 -272.88477 -268.37231 -261.99478 -261.04590 -260.84973 -256.28222 -254.24370 -250.03028 -246.64648 -246.13930 -241.87451 -237.50503 -236.76645 -233.70368 -230.92099 -230.12021 -225.70937 -223.29919 -220.20741 -220.39996 -213.04412 -211.87661 -211.06424 -208.01281 -206.59202 -202.46875 -199.36809 -196.68859 -195.50065 -191.89532 -190.89603 -190.14536 -187.12248 -182.47372 -182.00435 -179.92079 -177.68775 -173.12434 -172.37773 -170.21447 -168.19845 -167.64126 -165.85266 -163.15513 -160.04488 -158.62903 -156.55944 -153.64642 -152.81206 -150.79118 -147.86269 -147.67722 -146.65348 -144.93949 -141.10325 -139.73421 -138.69006 -136.17933 -134.80984 -133.09051 -131.83176 -129.79226 -127.64886 -125.21551 -124.62933 -122.66741 -121.67602 -120.41383 -117.78112 -117.35840 -115.29363 -113.24501 -112.13512 -111.09504 -109.94137 -107.57056 -107.30448 -106.26702 -105.49878 -104.26159 -100.87629 -100.46271 -98.40754 -97.77876 -96.82797 -95.06697 -93.49193 -92.66298 -91.89662 -90.44303 -88.74837 -88.52353 -88.02020 -85.58011 -84.96648 -84.33367 -83.33100 -82.81739 -81.25388 -80.50403 -79.77771 -79.20957 -78.78311 -78.22291 -77.02874 -75.64977 -75.29231 -73.43423 -73.40978 -73.02444 -72.68295 -71.22472 -70.46143 -70.03009 -70.37927 -69.49492 -68.73959 -68.27370 -67.08598 -66.37400 -66.13973 -66.81899 -66.11354 -65.83731 -64.71010 -64.41592 -64.36538 -64.15602 -63.50879 -62.31422 -62.41203 -62.29118 -63.12384 -61.81323 -61.00715 -60.69132 -61.57205 -60.79158 -60.66563 -60.57356 -61.89765 -60.32666 -60.27097 -59.53037 -60.77335 -61.00217 -60.35305 -59.99803 -60.36276 -60.14686 -60.48428 -60.56577 -60.16433 -61.70294 -61.21198 -62.30985 -61.87562 -61.89777 -62.17713 -62.37470 -62.42354 -62.72173 -62.88623 -64.09553 -64.01063 -64.40236 -64.40746 -64.21583 -64.90939 -66.38317 -66.53213 -67.19611 -67.46616 -67.93252 -68.26175 -69.80547 -69.50454 -70.43017 -70.76600 -70.45948 -71.66788 -72.50664 -73.91640 -74.31310 -75.17549 -75.08220 -77.07373 -77.03834 -78.97895 -79.52927 -80.38875 -80.74989 -83.13878 -83.87010 -84.19863 -84.63190 -86.11936 -87.03359 -87.33689 -89.19731 -89.45552 -91.32509 -92.27353 -92.97466 -94.22851 -94.83839 -96.73106 -98.50721 -98.93017
-517.54923 -514.23151 -508.01292 -504.49932 -501.37134 -495.23391 -492.50890 -486.39273 -481.89939 -478.78851 -473.34001 -468.36131 -466.57226 -459.72553 -455.14393 -451.31700 -445.88733 -443.47266 -437.18817 -434.74463 -429.63050 -426.26372 -424.95133 -416.33974 -412.79916 -407.94647 -405.07818 -403.32497 -398.82127 -392.93742 -387.05594 -384.79450 -382.05973 -377.90942 -374.21223 -369.78859 -367.34540 -363.08821 -360.75045 -354.22850 -349.98493 -347.75330 -343.87560 -342.23479 -338.61505 -334.91691 -331.33258 -328.92116 -323.62897 -320.84371 -316.62052 -312.37793 -311.14916 -307.65634 -302.63962 -299.11039 -297.51253 -293.14898 -290.87174 -287.85612 -285.87386 -280.55857 -278.71635 -274.81649 -273.20420 -271.15090 -265.75428 -262.71542 -261.08871 -258.98149 -254.90295 -250.14336 -249.17228 -246.59738 -245.70247 -240.89784 -238.38848 -235.92210 -231.46178 -230.30035 -226.80931 -224.95384 -221.63739 -220.56115 -216.66680 -213.80129 -212.49320 -209.72229 -209.21479 -205.59335 -201.48423 -199.62940 -195.87117 -195.10913 -193.16912 -191.10340 -187.97883 -186.63758 -185.09590 -182.55609 -177.75794 -177.52582 -174.66763 -173.99051 -171.01629 -168.27937 -166.27770 -164.68505 -164.23473 -162.23654 -157.35202 -155.05728 -154.38252 -151.60661 -150.19700 -149.22619 -146.34124 -145.55629 -142.72413 -141.92585 -139.66496 -137.40320 -135.89420 -133.13740 -132.66569 -130.53240 -128.21108 -126.17663 -125.89333 -125.07266 -122.51309 -121.50953 -121.00665 -118.23506 -117.47129 -115.45880 -114.79161 -112.62135 -111.04973 -110.38115 -108.46027 -107.53571 -105.90314 -104.98963 -103.56124 -101.22573 -100.92161 -99.82301 -99.65708 -97.78717 -96.01169 -95.43824 -93.21695 -92.92397 -91.39223 -90.73745 -90.16652 -88.26124 -87.62655 -86.86231 -85.73940 -85.19543 -83.66165 -82.85986 -82.29056 -80.80524 -80.64291 -79.26674 -78.28400 -78.03657 -77.22064 -75.93982 -75.19717 -73.86863 -74.49284 -73.27928 -72.64230 -72.12091 -70.65209 -70.65253 -69.83599 -69.16515 -69.00669 -68.08824 -68.18547 -67.85418 -67.42832 -67.31401 -67.05014 -66.44254 -66.37588 -65.23818 -64.97837 -64.78103 -63.64182 -64.23658 -63.91982 -63.87051 -64.17663 -63.07261 -63.20535 -63.95551 -63.27391 -63.12963 -62.52573 -63.24631 -62.72833 -63.32495 -62.09769 -62.12317 -62.03356 -62.06777 -61.98194 -62.26599 -61.79665 -62.41535 -61.89401 -62.26847 -62.93902 -62.96295 -63.71153 -64.09183 -63.65681 -64.11709 -64.09912 -65.43805 -65.42293 -65.50755 -66.22810 -66.62690 -66.66141 -66.49974 -66.62165 -67.94150 -69.06967 -69.56929 -69.31313 -70.54246 -70.85682 -71.40256 -71.48893 -71.70491 -72.31456 -73.78811 -73.02745 -74.75701 -76.14217 -76.56856 -76.63841 -77.14708 -77.81019 -79.88852 -80.49718 -81.60753 -82.35091 -83.07742 -83.70973 -84.87516 -84.98870 -85.64191 -88.04844 -88.77883 -88.93572 -91.49815 -91.06879 -92.12806 -94.74198 -93.87625 -94.52585 -97.42275 -97.18719 -98.98957 -100.16756
-525.03702 -517.31832 -510.65260 -504.73840 -502.82602 -499.24110 -494.48628 -488.10311 -482.65150 -479.41138 -477.76621 -472.47650 -466.99120 -460.64212 -458.21847 -454.39931 -454.18090 -445.96446 -438.25545 -436.22289 -431.14946 -430.05340 -425.97515 -419.65048 -415.21905 -415.18169 -408.23107 -403.12669 -398.77031 -396.33782 -389.78890 -385.53701 -383.28224 -379.79571 -377.22927 -371.77452 -368.62970 -367.55539 -362.18479 -359.06643 -353.42745 -349.06549 -345.61394 -341.70771 -338.94916 -334.60213 -331.40884 -329.93856 -325.74220 -321.38266 -317.66947 -315.68893 -312.41426 -308.49247 -306.77037 -301.29168 -299.46884 -295.32184 -293.99987 -291.82645 -287.13530 -283.54944 -278.96547 -276.48718 -275.45769 -271.52460 -269.54603 -265.13235 -261.47666 -258.91553 -255.12780 -253.75096 -250.75400 -247.65640 -245.22204 -241.81713 -238.78043 -237.89579 -234.27585 -232.37449 -229.41636 -227.81876 -224.16778 -221.52270 -219.55050 -217.15137 -213.68651 -210.82561 -209.10565 -207.38838 -205.81044 -200.39807 -197.66852 -195.89108 -193.80073 -191.43736 -189.53053 -187.55035 -186.62386 -186.93012 -182.28941 -178.32445 -175.67258 -174.42284 -172.35464 -170.80099 -167.61400 -165.49749 -164.61409 -164.44431 -161.39054 -158.68974 -156.93879 -153.71977 -153.04282 -150.19644 -147.84755 -146.58601 -145.84391 -142.30093 -141.36218 -139.52345 -136.63999 -136.28673 -134.35267 -133.72483 -132.80271 -129.29979 -127.57644 -125.92070 -125.24216 -124.51664 -121.43260 -120.12144 -118.68906 -118.41713 -115.76585 -113.66514 -112.40415 -111.71998 -110.72441 -108.25250 -106.80134 -106.35675 -104.32851 -103.63561 -102.28250 -100.69478 -100.36515 -99.19437 -98.20478 -96.24884 -95.66922 -94.27362 -93.87637 -91.93393 -91.10168 -89.50667 -88.85000 -87.94333 -86.90062 -87.04175 -84.91164 -83.17428 -83.50582 -82.04642 -81.12066 -80.41225 -80.41861 -79.65110 -78.67477 -78.29502 -77.38764 -75.74831 -75.85648 -75.62642 -74.96713 -73.59015 -73.23598 -72.34573 -72.06679 -72.03900 -71.76525 -70.35473 -69.82269 -69.83565 -69.53206 -68.31401 -67.48431 -67.75321 -67.21555 -67.33464 -67.59131 -67.35995 -67.02535 -66.08138 -66.31428 -66.24940 -64.88135 -66.71201 -65.69514 -65.67869 -65.10290 -65.73375 -64.68385 -64.29205 -64.14131 -63.80390 -64.38342 -64.47764 -64.54220 -64.05421 -64.26990 -64.75893 -64.29548 -64.31165 -65.84087 -65.05403 -65.00611 -64.88919 -65.27227 -66.12856 -65.81132 -66.90855 -66.52270 -65.94744 -66.95330 -66.47391 -68.22900 -68.71817 -68.48140 -69.17777 -69.15911 -70.25628 -70.00245 -70.21993 -71.57347 -72.29407 -72.95752 -73.14738 -73.61098 -74.11762 -74.54333 -74.48563 -76.63086 -77.31293 -77.95280 -77.69119 -78.99352 -79.53863 -80.61574 -81.82515 -82.13716 -82.54120 -83.42548 -83.80277 -85.32040 -85.77684 -85.38523 -87.71658 -89.10903 -89.59871 -91.54621 -92.38696 -92.70830 -94.60467 -95.32124 -97.36324 -97.63934 -98.53861 -100.03390 -100.32474 -102.45260
-524.35213 -520.01360 -512.42110 -506.98450 -502.62518 -502.02118 -495.48327 -489.66565 -485.83679 -480.88750 -479.11038 -472.82117 -467.83338 -464.35501 -459.07647 -455.61497 -454.52299 -444.52333 -441.90314 -436.63051 -432.72683 -429.68807 -426.19531 -420.69766 -417.46475 -415.74726 -411.39853 -404.87522 -403.53135 -397.59859 -393.36285 -387.34824 -385.85612 -382.55427 -375.90273 -374.18126 -368.90886 -367.65393 -365.39012 -363.22637 -355.25160 -352.82023 -348.66316 -342.98433 -341.92896 -336.91658 -332.96108 -330.92181 -326.53387 -324.44652 -321.36397 -316.82517 -315.39607 -311.15002 -308.86617 -302.64615 -300.16220 -298.47880 -294.21077 -291.89173 -288.99824 -284.70536 -281.76612 -278.60207 -275.87573 -271.97066 -270.91570 -269.85887 -263.78206 -260.25051 -258.74442 -254.35532 -252.39705 -251.02839 -246.43979 -243.66237 -242.35705 -239.08383 -235.96306 -234.23921 -230.28916 -228.89845 -225.85276 -221.72745 -221.21629 -218.02215 -215.98291 -212.48885 -210.44457 -208.45458 -208.20472 -204.73779 -200.01125 -199.18967 -196.58232 -192.85484 -189.52428 -189.05349 -187.72156 -186.78227 -183.54730 -181.43802 -178.13659 -176.79237 -174.39616 -171.68654 -169.68964 -167.54449 -166.05010 -164.55871 -162.66061 -160.40219 -157.69776 -156.64027 -154.78558 -152.74299 -149.94785 -149.46560 -148.31474 -146.03636 -143.26548 -142.92311 -139.84421 -137.61461 -136.38068 -133.96819 -133.49870 -131.37319 -130.81039 -128.45757 -127.18423 -124.93875 -124.05558 -121.50548 -121.08626 -119.32708 -118.40536 -115.50837 -113.03417 -113.32608 -112.05957 -111.10435 -108.63498 -108.95580 -108.99046 -105.81412 -103.80582 -103.05396 -100.80930 -99.52695 -99.13571 -98.83537 -97.85378 -97.08054 -95.67990 -94.14872 -93.67464 -92.49899 -91.45291 -89.77813 -89.16223 -87.91891 -87.53187 -85.72395 -85.69365 -86.26019 -84.02996 -83.07337 -81.74917 -81.30615 -81.12448 -79.50633 -78.48302 -78.41273 -77.72391 -78.04717 -77.66814 -76.11198 -75.54651 -74.95805 -74.26915 -74.34905 -72.90921 -72.33992 -70.80266 -70.92431 -71.49589 -70.11778 -69.95404 -69.92217 -68.91727 -68.85412 -69.49019 -69.26224 -68.31374 -68.21950 -67.31537 -67.32666 -67.37477 -67.28775 -67.21137 -66.82590 -66.20772 -66.11807 -65.89756 -65.88065 -65.82359 -65.92213 -66.11810 -66.30186 -65.63200 -66.10371 -66.16703 -65.72847 -66.25868 -66.27474 -66.46719 -65.90297 -66.07542 -66.09580 -66.36481 -66.61274 -67.16750 -67.99113 -68.40339 -68.82425 -67.45904 -68.28633 -69.18864 -69.29381 -70.34316 -70.98839 -70.26385 -71.37878 -71.93986 -72.65062 -72.67197 -73.38683 -75.31156 -75.30679 -75.25138 -75.84078 -75.29708 -76.13941 -77.41388 -78.74738 -78.83655 -80.16151 -81.39593 -82.23487 -82.24993 -82.58699 -82.90097 -84.15896 -85.61851 -86.31645 -86.83782 -86.79031 -87.47899 -91.29959 -91.50284 -91.73959 -92.50753 -94.55953 -94.92048 -95.77462 -96.69631 -98.36094 -98.92544 -100.96447 -101.53638 -103.68155 -105.73017
-525.81248 -524.68612 -520.06103 -510.86175 -504.32949 -502.22321 -497.05072 -493.59761 -486.75105 -481.34881 -479.16022 -475.82886 -470.50812 -464.97931 -460.38588 -457.99739 -453.92683 -450.21706 -440.61333 -439.47931 -437.05886 -429.58938 -427.46350 -420.87438 -418.34927 -416.12519 -415.61039 -406.08664 -403.26583 -398.87819 -394.66813 -391.01679 -387.93977 -386.71568 -381.04842 -373.37828 -370.89043 -370.08203 -365.67421 -362.69603 -359.97143 -354.90180 -348.89053 -346.07929 -344.11244 -338.82147 -336.01562 -331.88936 -330.31060 -325.88722 -321.31046 -320.42705 -316.02245 -313.06730 -310.36336 -305.24789 -301.75351 -300.66727 -297.32195 -292.19453 -288.45583 -287.44522 -285.63372 -283.61487 -278.66398 -275.44547 -272.62038 -271.49829 -268.76037 -262.32238 -260.97930 -259.47800 -255.62380 -254.48093 -249.82846 -245.44250 -244.04766 -239.80999 -239.23518 -234.67392 -232.76744 -230.61557 -225.98274 -225.06728 -223.03512 -220.67977 -217.71180 -214.64883 -213.40142 -210.08078 -208.36275 -206.12060 -204.39862 -201.83534 -197.62832 -194.65345 -192.34313 -190.00142 -188.58285 -187.16987 -184.52954 -182.32538 -181.88663 -178.38487 -175.53026 -174.36052 -172.31860 -170.66889 -167.11657 -163.94896 -163.28564 -160.83883 -160.23347 -158.85506 -156.20544 -153.64011 -151.41839 -150.14434 -148.66931 -147.15827 -144.76689 -143.45442 -141.65256 -140.55002 -137.42029 -136.57935 -134.91636 -132.22730 -131.29719 -130.02483 -128.47951 -128.14579 -125.26728 -124.50458 -122.84144 -121.87875 -120.85357 -118.22040 -115.92539 -115.12730 -115.08531 -111.66184 -111.21846 -110.10866 -109.22480 -107.66862 -106.58303 -105.57530 -102.89210 -101.54470 -101.25419 -100.50849 -100.01757 -98.10269 -96.88876 -96.75292 -94.68078 -94.39550 -92.29575 -91.76325 -91.14034 -91.08938 -89.81164 -88.50886 -87.29115 -86.88418 -85.77872 -85.54024 -84.45835 -83.67426 -82.70134 -82.80640 -81.24592 -80.72713 -80.05599 -78.64981 -78.28010 -78.34565 -78.02781 -76.21724 -75.46010 -74.76758 -74.43676 -74.77211 -74.40854 -72.87043 -72.18366 -72.40307 -72.08230 -71.67047 -71.34522 -70.53643 -70.19679 -69.97557 -70.51562 -68.92104 -69.11644 -69.42820 -68.89417 -68.90651 -68.50587 -68.85228 -68.62728 -68.29682 -66.36673 -66.23158 -68.02317 -67.51244 -67.03273 -66.88185 -67.56143 -66.66475 -68.54207 -67.94282 -68.00730 -66.83140 -67.02414 -68.06442 -68.28230 -67.71629 -68.98452 -69.23395 -69.65058 -69.80104 -70.02275 -69.55410 -71.09864 -71.39859 -71.54571 -70.33483 -71.21000 -72.00444 -72.32542 -74.21070 -74.03526 -74.21134 -75.19543 -75.16517 -75.53903 -76.21763 -76.62830 -76.33054 -78.48584 -79.31445 -79.83812 -80.13200 -81.05007 -81.48955 -82.48415 -82.59994 -84.28494 -84.58569 -85.57416 -85.82781 -88.17191 -89.01887 -89.40444 -89.19955 -93.12307 -92.78224 -92.45157 -93.45871 -94.80073 -95.29214 -97.07937 -97.86057 -99.15265 -100.68772 -101.87544 -103.43170 -103.97327 -105.15239 -106.34913
-528.36610 -525.30155 -520.79763 -512.40019 -507.83280 -502.49322 -499.78184 -495.25770 -493.71261 -481.06959 -480.47779 -477.03762 -471.77081 -466.75355 -462.60542 -457.97746 -455.80720 -451.96595 -446.15102 -441.96939 -440.98027 -435.26713 -429.05984 -423.75194 -418.08729 -417.18877 -415.08853 -408.94262 -406.75980 -403.08888 -397.45947 -394.77808 -388.55101 -387.12445 -385.00837 -378.46026 -372.99379 -370.73512 -367.35399 -364.85312 -360.67733 -359.86443 -351.52562 -349.49496 -347.80412 -343.40241 -336.43661 -334.30157 -331.94705 -326.76690 -325.22533 -321.87709 -319.18363 -314.24169 -308.63738 -307.02943 -302.50283 -303.61693 -298.69057 -294.32157 -292.01395 -288.93827 -286.02381 -284.34109 -280.13386 -276.57306 -274.36073 -271.52798 -268.77335 -267.61672 -261.96049 -261.03999 -256.72138 -254.49249 -251.78327 -250.26632 -245.03742 -241.14458 -240.19505 -238.29816 -234.74534 -234.18147 -229.71464 -226.52646 -224.91188 -222.11352 -219.12930 -217.72257 -214.62465 -213.40890 -209.95516 -207.89163 -205.53869 -204.46176 -202.01498 -199.96279 -195.63687 -194.05227 -191.12581 -187.73933 -185.92393 -184.67064 -182.17222 -180.26207 -177.97498 -176.78632 -174.48069 -171.96286 -171.34924 -167.04262 -164.76360 -161.85618 -161.57880 -160.06032 -157.66497 -156.32613 -154.45970 -151.29083 -150.09061 -148.75313 -147.62968 -145.51926 -143.54390 -143.59959 -140.75344 -138.85111 -138.18625 -135.36688 -134.15728 -131.59811 -130.94667 -128.36885 -125.99171 -125.21562 -123.37331 -123.02475 -121.77644 -121.93695 -118.89347 -118.00124 -117.97012 -115.14643 -112.26067 -112.07198 -110.75190 -109.80873 -109.13479 -106.43889 -105.65652 -104.64664 -104.05049 -101.62992 -100.57327 -99.50844 -98.73323 -97.93075 -98.05543 -95.32776 -94.48594 -94.37250 -93.31938 -91.80832 -91.61686 -90.48994 -88.20496 -87.19979 -86.50388 -86.34404 -86.17358 -86.10859 -83.98610 -83.69474 -83.35195 -81.94712 -81.10201 -81.17200 -80.20037 -79.84335 -78.83384 -78.21699 -77.89862 -77.51000 -77.19001 -75.65293 -75.34716 -74.47207 -74.38677 -74.12912 -74.09473 -72.40564 -72.88413 -72.86352 -72.14436 -71.99854 -71.46929 -71.47103 -70.50537 -70.33277 -71.35422 -70.64850 -69.76312 -69.78601 -70.38033 -69.28492 -70.91925 -69.39739 -70.63828 -70.05859 -69.49723 -69.41063 -70.18892 -69.23641 -68.91872 -70.47440 -69.70128 -71.06386 -70.58729 -70.77532 -69.84362 -70.90783 -70.99591 -72.25324 -71.86692 -72.03593 -71.13264 -72.47824 -72.80889 -73.57940 -73.92330 -72.86020 -73.99511 -74.04919 -75.38045 -74.93145 -75.15411 -76.68833 -76.13075 -77.50219 -77.57168 -78.61280 -78.60276 -79.15971 -79.80982 -80.56650 -82.61987 -82.36767 -83.26826 -82.39809 -84.30089 -85.10134 -85.70058 -86.99922 -87.99441 -89.14743 -89.44793 -90.90205 -91.59133 -92.02923 -93.75663 -94.81755 -95.01031 -95.23626 -96.60288 -97.52548 -97.63847 -100.36564 -102.03330 -102.75078 -103.64704 -104.19885 -104.66702 -107.53642 -108.80909
-529.38229 -528.31009 -521.80251 -515.50836 -514.32201 -507.59413 -500.51789 -497.54083 -493.77403 -490.83555 -482.75471 -479.00942 -475.22249 -469.56343 -463.76007 -462.07446 -456.61115 -452.86817 -448.80047 -445.19895 -441.26873 -438.77845 -433.59553 -430.11001 -422.40872 -420.76089 -416.09090 -413.98908 -406.62172 -404.26594 -398.70351 -394.37592 -391.81250 -387.28012 -384.92153 -381.94150 -376.93810 -371.83899 -370.03928 -366.13979 -361.85707 -359.90676 -354.09782 -350.63696 -348.65742 -347.91464 -343.26397 -337.43230 -332.24551 -331.18003 -327.39235 -326.21361 -321.78984 -318.34824 -314.83348 -310.73493 -305.16240 -304.46249 -304.22434 -297.73734 -293.23021 -292.18590 -288.78641 -286.66356 -282.21149 -279.36447 -275.63916 -271.83716 -271.31094 -268.06061 -265.83163 -261.92074 -259.47058 -257.59844 -254.47857 -250.57580 -248.98733 -244.96643 -241.65501 -239.73378 -236.01284 -234.61762 -232.34636 -227.56243 -225.41022 -223.54251 -221.24785 -219.89541 -217.67260 -214.34303 -211.59825 -209.32258 -206.01122 -205.18911 -202.74029 -200.22845 -199.61552 -195.19100 -192.63793 -190.97174 -188.76651 -187.09355 -183.35668 -180.46197 -180.17040 -178.54833 -175.85126 -174.36255 -172.47437 -170.97132 -166.49979 -164.69939 -163.48594 -162.33140 -160.37287 -159.06161 -157.14526 -154.35113 -152.44559 -151.62314 -149.83911 -147.76949 -144.96119 -143.86845 -142.82433 -139.66469 -139.26746 -139.00460 -135.21873 -133.37667 -131.95597 -132.25304 -128.38954 -127.98906 -125.41470 -124.83103 -123.37320 -122.41622 -121.04926 -118.92782 -118.85716 -116.52656 -115.74409 -114.24306 -113.94016 -110.78005 -109.88301 -109.74737 -108.00240 -106.87067 -105.53231 -105.82750 -102.76530 -101.82117 -101.15037 -100.58209 -98.71128 -97.78045 -96.28549 -96.51782 -94.17591 -94.04579 -93.33690 -92.64504 -90.45452 -89.41448 -89.03067 -88.84043 -88.45395 -88.38851 -86.40654 -84.65843 -85.20533 -83.91773 -83.59896 -82.41814 -81.82075 -81.40518 -80.83063 -80.33224 -79.78236 -79.61441 -78.32582 -78.04195 -77.89338 -76.53861 -75.40419 -76.98353 -75.01098 -74.41075 -75.24025 -73.65273 -73.66784 -74.24087 -74.02846 -72.74364 -72.52227 -71.96055 -72.10200 -72.96951 -71.80823 -72.20640 -71.38583 -71.49360 -71.31520 -72.09575 -71.38233 -71.46006 -71.76913 -71.67305 -71.69819 -70.20669 -70.94311 -71.74270 -71.73275 -71.86305 -72.88627 -71.60704 -72.44909 -73.22115 -73.42435 -72.89820 -72.98149 -73.27546 -72.98867 -73.80336 -73.49810 -74.65283 -75.26522 -75.34252 -77.04186 -76.71843 -76.68376 -77.16006 -77.76680 -77.65420 -78.58659 -78.84994 -80.51506 -80.52888 -81.00933 -81.43393 -81.97484 -82.69993 -83.16101 -83.71422 -84.52493 -86.48799 -86.60887 -87.17707 -87.68185 -87.59471 -89.66749 -89.97387 -91.92303 -92.25029 -92.60370 -93.25863 -94.79693 -96.63527 -96.66340 -97.83417 -98.22431 -100.82946 -101.61281 -102.81549 -103.21643 -103.44629 -104.19955 -106.14215 -107.82042 -108.61561 -110.34920
-531.04842 -526.39894 -523.73536 -516.92568 -514.99105 -509.22620 -502.63078 -499.29074 -494.65259 -492.12817 -488.42847 -478.51393 -474.58371 -468.32456 -467.33225 -464.07982 -458.13913 -455.80239 -449.69826 -445.77119 -443.11372 -438.75908 -435.95072 -430.80978 -427.10050 -422.41217 -418.04007 -414.87052 -409.50649 -406.84033 -401.72170 -398.53511 -395.42121 -389.90374 -385.22278 -383.79680 -380.64709 -375.60906 -370.92404 -367.93330 -363.65291 -361.34314 -356.69944 -351.55249 -350.55488 -348.33519 -345.26551 -338.45671 -335.30318 -331.81048 -328.81871 -327.80163 -324.00834 -322.46640 -318.34369 -311.96405 -310.64938 -307.88687 -303.51218 -299.20419 -296.13865 -294.06769 -289.59294 -287.65369 -286.42608 -283.12220 -277.05322 -274.38305 -272.48041 -271.55581 -268.31471 -264.16390 -260.64756 -259.77400 -255.65957 -252.20637 -250.30150 -248.52363 -243.43304 -242.27260 -239.75755 -236.08307 -234.67211 -231.89739 -228.57375 -225.25483 -224.29662 -221.98924 -219.39344 -217.09258 -213.51252 -212.29016 -209.47418 -205.43413 -204.01096 -201.43622 -200.00251 -197.15545 -194.69732 -193.38285 -191.14425 -188.19163 -185.74058 -185.59096 -181.61126 -179.40811 -178.29770 -175.64463 -174.32743 -173.38123 -173.22272 -169.02838 -166.49685 -163.58258 -163.32827 -159.61723 -158.20572 -157.39546 -153.75180 -152.28541 -150.55318 -148.48706 -147.97023 -145.67567 -143.05571 -142.48894 -141.57136 -139.47430 -138.09625 -136.40214 -134.34589 -132.98425 -132.53714 -129.69180 -128.58548 -126.33595 -125.70743 -123.99287 -121.87531 -121.02319 -119.75236 -119.34966 -117.04836 -115.21554 -115.48559 -113.26815 -111.66958 -110.93536 -109.96346 -107.45896 -107.37512 -106.48255 -105.86989 -104.43241 -102.10910 -101.77910 -101.23853 -100.26291 -98.95360 -97.05040 -96.75574 -95.66861 -93.82249 -93.99917 -93.79716 -94.61761 -90.36374 -90.75153 -90.36552 -88.92974 -88.09999 -86.45864 -86.51484 -86.45097 -85.87236 -83.75715 -83.25097 -82.32925 -82.12619 -82.48108 -81.33927 -80.83161 -80.93555 -80.32283 -80.48739 -79.40320 -79.52600 -78.50945 -79.29118 -78.16803 -76.61943 -76.38452 -76.08740 -74.86136 -74.90648 -75.64812 -75.65635 -73.85570 -74.64214 -73.99497 -74.25675 -74.26431 -73.34397 -73.18880 -73.49319 -73.39523 -73.38828 -73.25365 -73.60112 -73.80377 -73.36979 -73.49353 -73.71316 -73.89027 -73.60973 -73.78268 -73.67510 -73.92225 -73.99356 -74.15502 -73.96933 -74.77543 -75.18666 -75.04786 -75.44073 -74.28383 -76.05494 -76.97405 -77.72014 -77.95442 -78.10922 -78.52898 -79.54763 -79.42939 -79.55396 -80.38797 -80.53223 -81.34818 -82.67147 -81.67454 -83.19775 -84.37458 -84.18309 -85.33290 -85.92026 -86.46845 -86.80096 -87.13261 -87.90693 -88.06941 -89.91127 -90.09364 -90.29117 -92.27991 -92.48353 -93.21842 -95.05558 -95.39020 -95.95903 -97.08836 -98.09176 -100.12878 -101.26641 -102.69866 -103.15595 -104.85512 -105.65160 -104.66219 -106.20751 -109.24736 -110.17536 -110.44440 -112.99872
-533.26586 -530.51517 -524.75574 -521.75336 -516.35497 -509.81811 -506.33088 -500.13537 -497.90920 -493.17443 -491.23052 -486.44930 -479.65801 -473.95075 -469.24417 -465.24704 -463.75334 -455.64159 -450.76456 -448.27499 -444.58975 -439.48791 -437.31835 -433.93515 -428.64789 -423.98534 -419.42442 -415.66211 -414.09290 -408.15069 -403.73468 -402.41846 -397.07091 -391.42699 -388.71370 -383.76264 -380.99063 -377.43736 -373.70673 -368.50884 -367.47079 -362.78459 -358.64376 -353.84382 -350.16761 -349.23755 -348.42270 -341.14208 -335.49286 -334.54959 -332.48887 -327.83540 -324.44760 -319.80532 -318.13007 -315.42484 -311.68349 -308.53579 -306.26713 -302.18533 -298.37533 -296.85331 -292.73182 -289.07379 -287.37707 -283.59198 -280.41064 -278.12312 -274.39539 -273.32174 -267.60185 -265.11691 -263.28575 -260.77730 -258.41002 -256.68472 -251.23488 -250.30834 -246.06055 -244.62513 -241.00261 -239.78697 -235.53197 -233.13927 -229.49604 -228.03880 -226.10998 -223.05346 -220.20219 -217.72235 -216.43465 -213.18531 -211.47973 -208.32010 -206.75474 -204.48381 -201.44069 -198.00834 -197.46335 -194.85806 -192.18241 -190.82834 -190.16648 -186.47124 -185.23049 -183.21160 -179.46744 -178.23545 -176.40349 -173.63374 -173.22371 -171.19336 -168.15752 -164.74915 -163.81353 -162.07866 -160.67425 -157.09875 -156.06153 -155.23759 -152.65753 -151.54290 -149.15456 -146.15971 -146.01818 -143.93951 -142.70697 -141.80695 -140.07329 -137.77344 -137.03510 -135.22065 -133.71185 -132.20326 -131.25170 -128.85390 -127.79590 -126.17607 -124.20882 -123.13092 -122.51575 -120.23983 -119.38362 -117.21068 -116.64800 -116.34447 -114.51086 -112.74184 -111.31796 -109.63956 -109.42919 -107.22224 -107.71620 -104.65428 -104.55348 -103.71392 -103.55840 -101.50681 -99.91150 -97.93731 -98.91353 -98.38725 -96.34834 -95.20417 -95.25140 -94.81458 -93.12872 -91.75521 -91.21236 -90.38245 -90.31192 -89.23149 -89.11425 -88.80649 -88.71805 -86.82538 -86.89589 -86.18066 -84.80145 -84.25964 -83.90140 -82.88584 -81.45931 -81.78060 -81.62609 -81.50214 -80.53380 -80.04302 -79.97051 -79.86360 -79.43278 -79.33820 -78.45249 -77.54046 -77.19399 -77.83040 -76.60832 -76.03612 -75.60225 -76.38085 -76.45580 -75.60419 -74.61251 -75.31237 -74.57231 -74.96819 -74.27042 -75.30769 -74.82049 -74.72697 -75.69858 -75.88387 -76.22968 -75.73151 -74.64059 -74.09036 -75.77939 -76.53806 -76.21350 -76.01115 -76.26259 -76.49191 -76.40884 -77.53424 -78.01308 -78.44181 -78.94303 -78.52812 -78.44927 -78.88502 -79.56498 -79.68346 -80.22084 -80.36407 -81.95152 -81.53392 -83.10110 -83.15947 -83.55741 -83.61318 -84.82863 -85.11292 -86.79122 -86.92165 -87.09600 -88.90592 -88.78035 -89.44886 -89.62860 -90.44745 -91.12234 -93.40555 -94.20937 -95.33553 -96.04022 -96.00994 -96.62538 -97.73252 -97.98222 -99.18061 -100.71362 -102.03454 -103.44280 -104.12826 -105.88626 -105.96523 -106.40664 -107.16544 -110.28153 -110.53466 -111.04474 -113.51059 -114.93267
-536.53804 -532.57541 -528.44222 -523.89142 -516.42792 -514.38115 -506.65088 -502.47601 -499.69392 -498.13808 -493.01793 -485.79071 -480.53860 -477.57727 -473.27898 -471.99699 -465.32290 -456.62137 -452.10015 -450.79731 -446.93237 -444.26290 -437.01501 -434.53282 -430.40362 -426.73300 -423.90520 -416.33424 -413.94850 -410.10459 -407.09917 -403.90499 -399.67809 -394.79293 -392.85960 -385.32835 -383.58795 -379.60682 -374.14608 -370.75113 -368.59215 -365.93111 -362.90809 -355.67342 -351.31112 -351.64570 -348.65128 -346.43631 -339.52793 -338.60911 -334.83252 -330.81332 -325.85533 -324.27925 -317.41171 -316.66915 -312.78511 -310.78913 -307.39086 -303.66713 -299.02783 -297.96339 -292.01974 -291.27131 -289.22252 -286.77394 -282.49023 -278.89525 -275.78770 -274.03547 -269.69317 -268.25395 -264.87194 -260.97504 -260.14066 -256.63360 -255.31240 -251.13508 -247.51016 -245.71336 -243.96663 -241.69339 -238.14894 -234.73368 -233.46706 -230.54898 -227.15040 -224.55688 -222.69445 -218.97703 -216.89339 -214.90433 -213.88456 -210.53488 -208.52266 -205.77822 -205.14719 -199.91477 -198.58422 -196.16414 -193.66093 -192.86781 -190.64165 -188.97462 -187.09826 -183.81448 -180.90915 -179.26235 -177.51185 -175.31464 -174.70683 -171.90652 -171.32316 -168.08342 -165.83648 -164.87373 -161.84178 -160.45740 -156.71366 -156.79824 -156.87927 -153.40289 -150.12520 -149.65917 -148.60607 -146.37053 -143.52319 -142.93592 -141.21566 -139.17288 -137.65298 -136.23507 -134.26499 -132.55806 -132.23362 -131.15381 -128.99242 -127.40282 -126.24415 -123.91183 -122.96307 -122.15500 -120.42086 -120.02659 -118.36302 -117.56614 -115.57742 -115.09061 -113.06174 -112.37142 -111.66434 -109.13872 -108.87643 -107.80104 -106.36285 -104.90551 -103.88007 -104.89395 -102.67624 -101.55695 -101.16474 -99.57657 -98.13051 -97.38300 -96.86569 -96.18857 -95.54423 -94.14914 -93.13701 -93.02839 -93.18928 -91.51772 -90.81544 -89.57639 -89.15549 -88.39750 -87.28315 -87.29162 -86.20844 -86.11510 -85.25948 -85.27731 -84.12340 -84.14509 -83.83170 -83.27664 -82.44922 -82.32477 -81.32007 -81.16342 -80.65840 -81.52737 -81.74623 -79.07033 -79.28396 -79.01486 -79.56043 -80.34646 -80.22489 -78.02264 -77.22025 -78.13466 -78.77054 -78.20270 -78.02544 -77.10817 -76.10203 -78.27502 -77.08622 -77.06444 -76.74613 -77.02158 -78.57068 -77.91465 -77.01706 -78.63634 -78.15181 -77.66624 -78.81878 -78.40300 -78.70974 -78.79297 -78.28888 -78.40770 -79.26012 -80.24303 -81.09216 -80.45763 -80.83274 -80.67579 -80.80510 -82.63105 -83.06120 -82.99214 -82.91309 -83.84973 -83.77558 -84.25062 -85.15973 -85.77555 -85.96086 -87.02411 -87.64841 -89.84528 -89.18480 -89.52714 -90.19866 -90.70347 -91.90090 -92.33464 -94.24279 -94.68501 -96.91587 -97.30342 -97.78136 -98.14166 -98.33464 -98.97955 -99.56114 -102.43928 -102.80968 -103.74361 -104.01274 -105.82615 -106.40161 -108.27191 -108.81177 -110.39345 -112.68723 -112.87131 -114.45456 -114.85123 -116.43500
-538.57974 -533.42610 -530.77603 -526.80664 -523.16095 -514.92368 -508.77550 -506.01114 -503.20509 -497.82160 -492.08403 -488.79412 -484.47236 -479.17552 -477.87498 -475.48575 -467.55227 -457.08794 -456.43137 -452.73575 -450.10786 -446.12413 -440.28619 -437.78251 -433.56228 -427.85749 -426.84295 -420.86107 -415.54606 -412.14499 -407.49477 -406.00325 -400.86702 -395.36674 -392.76993 -390.63061 -387.10472 -381.06005 -375.99843 -373.51171 -369.30626 -367.98055 -365.37229 -361.07317 -354.87719 -353.21478 -350.22783 -347.57920 -342.34550 -337.89330 -336.54001 -332.58141 -331.48332 -324.37070 -322.47003 -318.20838 -314.88829 -313.08765 -308.29852 -307.20076 -302.97899 -299.08825 -296.63173 -292.63927 -291.81703 -288.05454 -282.67138 -281.80933 -279.00783 -277.53555 -273.51120 -269.66077 -266.63534 -264.66033 -261.97517 -259.48667 -257.34733 -253.34991 -250.34299 -247.09731 -246.21445 -243.15098 -239.78828 -238.84980 -233.63917 -231.64266 -229.67958 -227.29279 -225.82525 -221.96777 -218.04216 -215.20070 -214.78491 -212.95238 -209.15530 -207.71223 -206.54066 -204.06393 -200.59093 -199.71985 -196.94481 -194.62458 -193.13228 -190.40562 -187.86205 -186.81991 -183.99835 -181.31584 -180.26780 -178.74809 -176.09053 -173.12900 -171.31518 -170.39301 -168.39120 -167.59941 -165.66761 -161.73006 -160.30458 -159.38422 -157.95937 -157.15626 -153.86710 -151.68573 -150.29931 -147.48309 -146.85204 -144.34005 -142.67155 -141.59351 -141.01611 -137.20445 -136.56753 -135.77108 -133.86667 -132.00654 -131.08259 -130.36620 -129.37484 -125.15507 -124.89167 -123.73945 -123.19568 -121.26789 -120.48974 -119.88820 -118.11538 -116.25464 -115.88569 -113.76552 -113.00247 -112.50874 -111.87005 -108.95016 -109.25901 -106.90426 -106.64292 -105.94341 -105.67269 -103.17939 -102.11805 -101.56059 -100.59650 -100.17660 -98.96364 -98.80792 -97.05946 -96.49795 -95.47277 -94.54263 -93.63621 -93.01642 -91.56072 -91.81148 -90.99225 -89.19529 -89.40645 -88.61202 -88.44643 -88.10472 -87.72519 -88.09268 -86.40387 -85.90433 -84.83901 -84.38387 -84.27911 -83.45331 -83.91488 -81.76333 -83.12492 -82.47132 -81.98913 -81.85845 -82.03291 -81.74021 -81.17156 -80.73631 -80.62991 -80.64986 -79.25271 -79.55054 -79.98376 -80.13402 -80.19694 -79.79596 -79.49080 -78.93592 -80.22085 -79.21409 -79.36518 -80.01768 -79.29225 -79.08398 -79.54675 -79.33790 -80.55777 -80.26301 -79.46406 -79.93000 -79.82291 -81.20536 -80.82516 -81.11411 -80.98769 -81.67791 -82.01319 -82.89514 -82.21385 -83.42107 -83.77199 -85.96381 -85.21749 -84.99319 -85.49824 -86.50907 -86.46509 -86.85981 -87.84498 -88.29271 -88.59712 -89.92833 -89.63209 -90.38725 -90.58724 -91.72863 -92.15962 -92.94060 -94.58835 -95.40995 -96.24582 -96.83889 -97.50050 -98.85372 -98.99699 -99.25760 -101.13256 -100.99722 -101.82302 -104.76458 -103.79275 -105.41774 -106.70937 -107.34079 -107.99373 -109.06003 -111.89450 -112.49560 -113.17446 -113.69954 -116.30440 -115.93002 -118.20393
-539.84335 -534.36586 -531.27865 -528.61790 -522.97907 -520.34882 -510.92859 -506.70261 -503.53279 -501.39633 -496.39093 -491.42348 -485.94717 -483.12605 -477.58062 -475.82871 -470.31253 -463.70845 -457.85998 -456.42607 -451.28970 -447.08139 -443.06589 -439.09970 -433.14790 -431.16031 -428.62341 -421.19987 -418.74905 -413.23147 -410.97250 -406.46451 -403.62453 -399.03729 -395.95437 -391.82931 -388.80161 -382.04343 -379.16977 -374.77229 -373.25715 -369.85899 -367.91202 -361.80165 -357.33663 -355.53132 -351.04770 -348.76569 -343.66322 -340.08425 -337.66636 -334.76314 -331.79036 -329.18461 -323.54811 -321.28618 -319.07228 -318.24160 -309.47642 -308.23319 -306.99998 -301.59945 -298.18955 -294.50944 -294.28302 -293.78445 -286.85171 -283.06055 -282.42071 -278.23029 -275.32195 -273.13817 -269.86761 -266.49748 -263.89891 -263.49592 -258.84672 -255.22563 -251.08918 -249.04113 -247.02543 -244.63411 -241.52746 -239.66412 -238.62662 -234.39107 -231.16534 -230.45143 -227.34141 -225.43152 -223.42923 -218.65192 -217.19460 -215.91491 -213.51290 -210.70398 -207.36911 -206.64490 -204.03936 -200.30966 -198.46845 -196.69495 -194.63976 -192.20473 -191.52131 -188.03263 -185.28815 -182.05372 -181.15505 -179.41305 -177.48915 -175.52184 -174.17926 -172.32884 -171.81699 -168.26664 -167.01254 -164.49948 -163.34968 -159.85172 -159.54947 -157.69387 -156.43143 -154.09046 -150.92596 -150.75154 -149.41055 -148.19399 -145.74363 -143.72410 -143.12749 -141.14082 -140.02580 -138.66091 -135.45745 -133.36684 -132.96543 -132.75922 -132.68734 -128.97331 -127.59179 -127.18473 -125.76796 -123.36288 -121.47625 -121.58514 -120.88162 -119.38012 -118.66470 -116.40383 -115.80808 -114.92420 -113.07953 -111.35101 -111.04192 -110.04219 -108.09561 -107.05570 -107.25610 -106.02218 -104.31069 -103.24097 -102.76632 -101.35490 -101.70608 -101.09577 -99.22262 -97.17702 -97.64959 -96.12844 -95.99342 -94.80550 -93.90915 -93.63268 -93.63497 -91.44206 -92.42557 -91.02254 -90.79692 -89.39695 -89.04480 -88.42474 -88.38548 -88.51788 -87.45731 -86.73779 -87.05509 -86.10228 -84.59670 -85.48278 -85.59655 -84.81169 -83.96966 -84.12354 -84.59299 -82.90196 -82.54274 -82.77997 -82.36159 -82.24614 -82.08870 -81.81956 -80.74706 -81.55858 -80.95385 -81.02405 -83.59852 -81.65615 -81.56347 -81.29564 -82.01661 -82.10890 -81.02867 -81.78797 -81.40996 -81.39563 -81.60972 -81.83671 -81.89416 -83.26140 -83.48922 -83.98034 -83.30252 -82.43449 -83.20272 -83.50851 -84.31195 -83.99602 -84.90685 -85.74928 -85.91873 -86.32916 -86.38454 -87.31157 -86.77757 -87.94480 -88.36854 -89.34361 -89.30630 -89.99365 -91.35019 -91.35383 -92.28906 -91.54012 -93.02344 -92.53349 -94.82753 -95.14882 -96.78935 -97.78591 -97.82349 -97.77647 -99.58527 -99.55306 -101.49782 -102.02265 -102.13732 -104.24075 -105.59170 -105.80282 -106.16602 -107.33332 -109.24220 -110.16020 -110.08679 -111.60993 -112.54869 -114.18779 -114.18892 -116.61602 -117.92403 -118.50212 -119.40655
-544.83594 -537.22060 -532.18464 -529.93152 -525.87984 -520.04437 -516.95205 -509.93768 -508.35153 -501.54040 -497.20663 -492.52714 -488.23983 -485.42256 -479.84574 -477.74446 -472.26949 -465.44541 -460.32210 -457.21727 -454.90536 -449.76262 -444.42574 -439.36102 -437.17707 -434.49204 -431.03216 -425.13184 -422.63229 -417.30459 -411.76620 -409.49260 -404.81354 -400.86448 -398.84293 -392.91252 -390.35274 -389.75073 -383.05237 -378.59369 -374.75289 -373.08068 -368.25311 -363.95232 -361.58786 -356.12784 -352.92897 -352.75609 -349.20536 -343.58307 -339.55362 -334.74404 -333.72829 -331.96058 -326.52644 -322.83128 -319.80978 -318.15158 -314.95314 -311.43156 -309.92047 -303.29139 -300.07739 -299.04194 -297.20745 -294.46728 -288.50432 -285.34787 -282.88310 -280.39789 -276.52547 -275.18917 -272.30162 -269.00453 -265.32885 -263.47458 -260.91071 -258.23710 -255.74422 -251.82302 -250.54380 -249.67517 -241.56916 -239.52833 -239.23822 -237.76767 -233.41637 -230.97561 -228.77984 -226.92252 -223.93427 -222.84393 -218.94642 -215.78994 -215.25795 -211.73144 -210.19477 -208.33890 -206.60593 -204.13309 -198.96126 -197.35934 -196.58449 -194.73596 -193.11752 -192.48520 -188.76476 -185.39759 -183.99443 -181.99521 -179.08422 -178.29023 -175.18210 -174.89993 -173.60580 -169.96021 -168.39628 -167.98460 -164.54547 -160.59864 -160.51245 -159.00561 -158.03652 -154.19427 -154.03271 -151.58349 -150.29089 -149.94221 -146.84487 -145.66592 -143.52216 -142.45143 -140.46466 -140.08142 -139.21231 -136.49458 -134.87309 -134.29083 -134.11875 -131.82184 -130.56376 -128.59173 -127.02672 -126.52834 -125.06088 -124.14919 -122.06965 -120.49912 -120.47810 -117.98367 -116.09404 -116.19872 -114.47232 -114.07907 -112.85063 -110.95611 -110.35660 -108.66701 -108.40341 -107.43751 -106.90367 -105.31883 -103.51880 -103.52731 -102.38531 -102.05592 -101.86641 -99.90462 -98.29477 -99.58317 -97.40015 -97.29141 -96.75348 -96.15426 -95.92096 -95.45091 -93.03281 -93.04456 -93.02188 -91.48278 -91.46431 -90.15713 -89.25666 -89.47439 -89.56435 -89.62940 -88.14598 -87.39980 -87.25089 -87.15753 -86.40483 -86.49794 -86.87229 -85.57857 -85.36695 -85.26950 -84.98466 -84.74531 -84.60351 -84.72924 -84.56130 -84.17580 -83.02286 -82.21757 -83.46118 -83.64999 -83.97047 -83.58043 -82.94887 -84.06951 -83.10882 -83.41679 -83.43723 -82.87974 -84.17517 -84.01778 -84.32572 -83.92882 -84.53702 -84.53351 -84.56187 -84.67252 -85.46569 -85.28901 -86.30268 -86.55746 -85.95730 -86.11411 -86.50628 -86.61845 -87.36420 -88.53258 -88.72233 -88.22023 -89.41178 -90.46381 -90.62044 -90.67620 -91.81789 -92.37536 -93.28936 -92.81414 -93.34189 -95.67126 -95.08730 -96.86213 -97.67118 -97.57152 -97.75211 -98.31889 -99.34200 -100.17000 -100.79443 -102.63456 -104.39686 -104.45340 -105.46787 -106.85259 -107.50785 -108.35072 -108.13467 -109.26068 -110.43280 -111.22866 -113.36293 -113.95550 -115.15526 -115.48276 -116.60201 -117.69549 -119.51560 -121.74168 -122.04210
-545.02097 -538.37595 -535.44305 -530.94711 -527.68658 -523.75946 -518.67255 -511.92611 -508.82862 -503.21577 -499.01556 -493.91663 -491.91713 -487.67839 -480.96787 -477.72019 -470.88472 -468.06095 -465.62792 -461.66954 -455.44012 -451.91146 -445.95625 -439.81685 -438.97082 -436.15046 -434.99515 -425.90110 -422.64781 -421.10869 -415.98869 -411.65158 -407.65292 -405.18212 -401.34417 -395.77595 -392.13493 -389.71714 -386.08600 -380.46846 -378.43496 -374.59958 -369.19070 -366.76113 -363.36871 -362.45496 -354.42691 -352.76398 -349.59224 -344.63654 -341.97994 -339.20872 -336.14339 -332.79566 -329.31450 -324.55345 -321.67977 -317.17331 -315.32135 -312.63829 -311.63278 -306.97015 -303.86910 -300.96462 -299.54948 -295.12730 -290.50466 -286.53015 -285.24324 -281.59069 -280.06185 -275.69364 -274.07411 -271.69517 -268.53071 -265.73442 -262.69160 -258.73685 -256.18775 -255.11571 -252.92294 -249.93601 -248.27583 -243.34124 -240.83448 -238.36552 -235.50351 -232.92626 -229.28536 -227.02051 -226.36072 -224.10902 -219.32451 -217.38383 -216.03031 -215.00891 -211.91072 -208.35022 -207.76000 -206.47678 -203.51659 -200.25355 -198.77492 -195.43982 -193.85940 -192.85391 -190.14139 -188.90076 -186.47653 -182.99458 -180.77019 -181.23294 -178.22845 -175.41342 -174.49349 -172.43725 -168.66752 -168.01253 -165.54031 -163.72001 -163.38450 -162.82737 -160.96954 -156.07757 -155.18370 -154.03475 -153.03509 -151.47499 -150.15536 -149.21321 -145.34772 -144.30143 -143.88566 -142.23701 -142.33895 -139.13984 -137.59866 -136.80302 -134.59717 -133.55811 -131.55021 -130.16853 -129.40227 -127.75619 -126.61608 -125.11662 -123.98936 -124.06686 -121.77521 -119.55580 -117.60664 -116.88393 -117.31917 -116.35012 -115.09738 -113.68809 -113.17710 -111.75948 -109.54860 -108.98341 -109.15290 -108.50035 -104.42325 -105.26772 -104.95108 -103.72137 -103.08817 -103.21790 -101.27071 -100.57316 -99.98921 -99.75040 -98.92704 -98.19614 -98.37478 -96.68456 -96.28539 -95.76149 -95.26429 -94.35203 -94.17660 -93.43017 -92.18482 -91.69667 -90.55094 -90.35257 -90.58336 -90.05164 -89.79275 -88.90147 -88.55957 -88.42273 -88.95346 -87.86149 -87.83984 -87.41238 -85.37539 -86.11446 -85.68924 -85.01124 -84.92992 -85.41888 -85.33591 -86.61631 -85.46018 -85.45771 -85.38184 -85.04403 -84.91519 -85.04313 -85.80492 -85.88073 -86.23333 -85.60545 -85.31850 -86.14485 -86.28977 -85.36891 -86.46266 -85.47014 -86.66560 -86.28578 -86.40109 -87.59548 -87.30545 -87.34470 -88.56232 -88.58498 -88.87862 -88.85014 -89.32778 -89.46884 -89.73112 -90.19668 -90.61117 -91.50663 -91.60510 -92.93662 -92.91680 -94.03970 -94.02715 -94.53649 -95.98812 -96.46064 -97.80061 -98.02678 -98.25845 -99.92249 -98.92224 -100.83473 -101.18503 -102.29538 -103.09838 -103.29235 -104.99604 -106.88782 -107.15924 -107.74935 -108.60387 -108.91558 -108.30264 -109.90604 -114.04452 -114.16825 -114.36871 -115.42439 -116.78607 -118.56591 -119.67803 -120.34678 -120.89894 -122.12502 -123.23051
-550.86180 -543.53703 -537.28769 -535.63527 -525.52375 -524.38454 -520.68302 -515.46985 -512.17153 -505.80658 -500.37061 -496.36315 -493.87857 -489.93151 -483.11072 -481.18486 -475.26859 -468.35587 -464.71955 -462.77619 -458.51742 -453.46856 -452.69413 -443.77025 -439.37405 -437.75822 -435.70176 -430.21094 -424.55185 -422.07788 -418.38181 -413.22723 -409.66580 -408.25923 -403.69525 -398.09870 -393.19302 -391.19825 -388.25350 -383.85851 -381.18404 -377.00937 -372.25123 -369.88135 -365.17387 -362.16023 -358.88305 -354.35765 -350.65344 -347.10104 -343.65685 -340.23146 -338.88466 -335.22969 -329.61443 -327.36033 -326.01787 -321.31579 -315.73959 -314.75705 -311.96032 -309.30230 -304.79156 -303.48599 -299.81372 -296.67344 -294.15740 -289.77137 -286.44912 -285.95835 -280.87442 -278.04242 -274.09033 -273.40411 -271.11715 -266.95983 -264.10473 -262.34076 -258.52412 -255.69967 -254.03421 -250.13658 -249.26975 -246.16691 -245.34816 -241.35757 -237.45075 -237.33502 -231.90471 -230.05022 -228.99954 -227.19192 -224.76110 -220.80339 -219.90893 -216.56381 -213.37907 -211.96817 -210.42919 -208.10244 -206.63843 -202.39488 -199.83132 -198.35100 -196.71969 -195.00718 -192.58788 -189.84462 -189.58091 -186.77437 -186.06259 -183.35063 -179.71447 -178.79504 -176.66355 -175.92501 -172.22221 -171.69747 -168.11870 -167.27810 -163.61107 -164.10163 -163.48732 -161.76528 -159.20077 -157.97758 -154.59448 -153.78136 -151.16643 -150.30466 -149.67715 -146.01013 -144.80606 -144.48666 -142.73775 -141.47536 -138.02874 -137.74097 -136.24133 -134.67625 -133.97406 -133.11701 -131.98671 -129.28014 -128.57063 -127.46713 -126.71853 -124.71863 -123.00979 -121.47863 -120.54660 -119.79530 -119.48009 -118.34179 -117.09784 -117.04298 -116.28105 -114.62328 -113.46814 -112.45936 -110.29652 -110.07553 -109.85569 -108.90996 -106.18784 -106.13272 -105.96964 -105.36665 -104.65259 -102.98989 -102.49313 -102.42290 -100.02541 -99.55967 -98.84181 -98.49185 -97.18656 -97.84071 -97.62735 -96.10689 -94.96090 -95.21527 -94.72080 -94.24534 -93.31771 -92.45862 -92.25959 -92.47775 -90.68106 -90.90950 -91.02456 -89.93673 -89.42124 -89.11744 -89.01251 -88.72169 -87.89838 -87.91842 -88.03368 -87.79255 -87.48239 -87.79660 -88.52287 -87.15114 -87.42660 -87.69919 -87.60363 -87.44522 -87.40010 -87.47585 -87.28411 -87.11576 -86.75398 -86.77456 -87.31568 -87.41656 -87.38990 -87.06357 -87.52241 -87.54569 -87.34672 -88.27001 -88.82985 -88.55874 -89.30903 -89.73207 -89.67448 -89.88767 -90.99983 -90.80373 -91.74753 -92.06665 -92.22076 -93.88750 -93.66118 -93.79745 -94.23318 -96.02594 -96.06797 -95.09330 -96.99422 -96.60445 -98.62391 -99.05135 -98.90780 -99.14217 -100.44507 -101.02852 -102.94925 -103.61774 -104.23681 -103.46874 -105.89147 -106.68734 -107.29863 -107.78646 -109.25518 -108.28127 -108.91156 -110.77237 -111.06239 -113.83071 -117.09459 -116.36318 -116.72062 -117.50340 -118.70934 -119.68629 -121.21754 -123.96104 -123.99111 -125.21878 -125.87322
-553.03422 -546.00195 -544.10635 -537.24986 -532.19632 -528.70699 -522.41257 -519.56612 -513.57896 -507.71858 -503.45758 -497.83964 -495.63211 -491.17602 -489.04493 -484.25892 -477.02441 -471.60212 -469.01355 -462.82029 -459.71242 -456.78771 -456.69423 -446.62158 -439.86355 -438.50283 -436.93997 -433.52365 -428.15178 -425.08412 -419.12525 -416.80693 -412.52769 -409.46114 -405.39506 -399.90478 -397.77490 -391.77013 -389.98862 -388.94458 -383.46769 -378.59741 -372.51760 -371.62714 -367.13767 -363.61190 -362.43159 -356.37021 -352.52860 -349.73248 -346.62749 -342.82166 -341.72912 -336.57133 -331.12199 -330.48806 -327.03884 -322.77548 -320.34791 -316.68983 -315.46603 -311.47019 -307.98865 -304.84531 -301.96624 -298.67113 -298.03565 -293.46008 -289.98595 -289.61950 -284.97098 -279.79569 -276.21872 -275.52711 -273.99548 -271.10410 -266.71338 -264.64019 -260.91276 -259.61043 -254.86598 -252.20380 -249.89541 -247.01838 -246.37810 -244.40201 -241.77136 -240.10588 -235.44454 -233.73079 -229.91878 -228.93441 -226.32672 -223.98333 -221.70598 -220.08117 -216.63652 -214.99674 -211.91705 -209.82965 -207.98953 -205.10002 -201.74114 -200.97504 -199.29890 -196.15581 -194.25300 -193.21804 -190.59280 -187.43901 -186.30352 -183.59998 -183.17466 -181.48816 -179.38617 -176.76809 -174.56499 -173.49534 -173.06270 -168.72685 -167.80908 -165.30308 -164.77335 -162.93065 -161.69302 -159.05537 -157.91921 -154.65837 -153.85466 -153.25633 -151.24123 -149.41414 -148.47865 -145.70957 -143.95705 -143.24355 -140.86526 -139.62931 -138.47658 -137.91953 -135.36533 -133.72383 -133.45663 -132.32895 -129.50233 -128.73177 -127.99552 -126.16915 -125.46964 -126.10026 -123.85451 -121.97242 -121.23716 -119.78213 -119.42981 -117.39895 -117.49120 -115.39288 -114.43428 -113.49881 -112.92158 -112.90302 -112.52235 -109.88297 -108.93953 -108.41297 -106.81368 -106.33331 -105.23297 -103.70418 -103.18641 -103.42480 -102.18689 -101.81026 -101.49851 -100.20365 -99.67515 -98.84593 -98.74683 -97.58908 -97.13062 -97.29307 -95.40167 -95.82287 -96.52711 -94.88482 -95.40477 -93.58368 -93.16337 -93.16366 -92.14761 -92.81445 -93.44211 -91.72733 -91.52354 -91.86273 -92.61572 -90.94762 -90.80611 -90.84485 -90.81210 -90.49825 -89.58803 -89.93120 -89.03129 -89.53542 -88.21212 -89.42231 -89.48892 -88.39515 -88.06269 -89.07690 -89.48759 -89.54004 -90.11735 -90.00069 -89.84401 -91.55496 -90.40490 -89.36906 -91.44772 -90.10893 -91.07934 -91.62293 -91.39271 -91.80975 -92.65919 -92.71525 -92.62775 -93.56348 -94.33726 -94.63927 -95.14776 -95.92987 -96.07104 -96.33372 -96.60872 -96.81247 -98.33475 -99.06815 -99.90807 -99.58943 -99.65917 -100.26317 -101.54179 -101.84261 -103.58383 -102.40944 -104.41103 -106.91353 -106.24856 -107.43819 -107.94030 -107.90334 -108.75974 -109.13601 -110.68412 -111.16112 -111.94218 -112.55237 -115.74493 -118.66721 -118.05081 -118.19408 -117.46923 -120.27053 -121.66295 -122.49261 -123.84806 -126.24411 -127.32618 -126.71871 -129.28784
-554.39816 -550.38749 -546.39490 -539.64404 -535.99652 -530.97734 -525.71508 -522.43355 -517.91707 -509.72925 -507.72289 -501.77324 -498.49972 -494.10447 -490.78229 -485.59571 -479.43174 -476.72501 -474.99368 -468.09060 -462.98035 -458.68723 -459.11779 -453.01712 -443.28201 -442.71719 -439.26357 -435.06342 -430.11015 -425.29353 -419.34232 -418.94421 -416.18716 -410.16497 -407.50902 -402.75935 -400.45266 -396.66858 -392.74741 -388.52714 -385.04350 -382.66871 -375.40134 -372.99147 -370.48865 -367.20004 -362.41970 -361.15503 -355.92634 -350.92630 -349.20346 -344.97538 -343.67653 -341.62087 -332.70738 -331.68221 -329.91664 -326.38212 -323.67431 -318.14640 -315.57542 -312.63923 -309.91588 -306.78208 -306.21493 -299.82052 -297.99532 -295.12783 -290.98196 -289.80951 -288.07124 -283.75743 -279.23388 -278.49226 -274.86424 -272.72205 -269.53014 -265.74719 -264.24659 -263.37299 -258.22496 -255.67480 -251.84797 -250.84386 -248.89024 -246.46649 -242.16502 -241.11328 -237.88576 -234.62213 -234.04709 -230.01052 -226.98585 -224.38090 -223.57540 -221.03770 -219.74986 -215.19170 -212.88917 -210.29538 -208.76951 -208.78043 -205.96411 -202.20893 -200.27818 -198.64234 -197.61624 -194.26323 -191.76369 -191.11293 -187.65264 -185.12606 -183.91035 -183.36577 -180.52581 -178.78428 -178.03996 -174.29409 -173.60144 -170.45894 -168.55253 -167.83508 -165.53063 -163.15762 -162.55850 -161.05285 -159.10870 -158.23728 -157.02750 -153.83355 -151.70309 -151.58083 -151.71135 -149.62221 -146.97804 -145.15385 -145.54408 -142.70581 -142.02892 -138.95627 -137.26581 -136.16211 -136.24910 -135.32028 -132.33454 -131.81706 -130.43678 -128.99987 -127.52651 -127.20203 -126.95918 -123.68096 -122.28013 -121.56351 -120.89580 -119.56464 -118.56442 -118.03712 -117.57350 -116.27908 -114.71206 -113.67601 -113.09068 -113.07401 -111.29089 -111.40082 -109.83990 -109.28440 -109.07788 -106.69443 -105.80034 -105.88044 -104.20004 -103.77267 -102.88767 -102.63888 -101.62197 -101.77740 -100.31694 -100.59828 -100.16963 -98.75021 -98.19306 -97.43212 -97.79768 -97.86956 -97.24340 -96.07622 -95.93955 -96.44545 -94.29371 -95.19437 -95.47820 -94.41339 -93.83905 -94.15513 -94.40195 -93.79157 -92.63874 -92.77639 -92.18932 -91.56507 -91.56126 -91.48980 -90.54752 -89.97905 -90.39567 -90.74589 -90.76627 -92.06234 -90.82526 -91.62697 -92.07821 -91.98611 -91.04575 -90.53324 -91.58091 -92.12390 -91.97716 -93.05133 -92.37319 -93.42932 -93.52491 -92.83843 -92.81813 -92.79825 -93.26271 -95.81902 -95.51446 -95.98399 -95.81340 -95.55196 -96.19193 -97.48515 -97.43525 -96.97933 -97.60295 -99.04989 -99.55548 -100.62167 -101.11314 -101.89796 -102.95385 -102.76854 -104.40166 -103.29050 -104.99801 -105.28638 -106.35239 -107.35418 -107.61860 -108.63270 -109.18059 -110.13441 -110.79983 -111.32791 -113.78974 -114.46192 -115.01546 -117.14780 -118.12349 -118.92487 -120.32045 -119.86224 -120.48423 -121.62125 -123.11473 -125.39681 -125.54327 -127.12604 -127.73500 -129.14098 -130.06784
-558.20852 -550.75180 -545.07709 -543.64806 -537.97398 -532.69919 -527.39240 -523.01154 -521.12912 -514.81225 -509.73002 -503.81232 -500.68369 -494.69479 -492.79260 -485.22571 -484.33454 -478.13341 -474.17371 -472.36892 -461.74720 -460.57891 -459.07477 -452.35131 -449.26059 -443.26069 -441.45943 -438.22591 -432.34720 -430.04098 -423.83176 -419.22450 -416.64804 -411.25276 -408.83464 -405.99907 -400.95577 -398.87574 -394.18525 -390.56927 -389.71455 -383.89102 -379.72097 -374.47968 -373.47978 -371.12247 -366.27024 -361.72237 -357.80101 -356.28496 -351.04756 -345.47043 -343.24841 -341.98768 -337.46659 -334.00103 -331.76420 -327.84792 -325.90269 -318.66802 -317.92456 -314.88257 -310.32239 -309.02819 -306.25029 -303.28227 -301.10128 -298.18002 -294.15704 -292.51474 -290.09197 -285.01463 -281.24419 -279.39216 -276.41625 -274.28075 -270.88281 -268.81043 -266.56405 -264.28507 -261.19056 -259.25038 -255.77971 -252.25665 -250.48097 -247.10455 -244.35596 -242.06689 -238.65187 -238.24729 -235.06319 -233.41354 -229.30062 -228.26914 -224.53470 -222.24238 -221.13164 -218.48648 -217.90057 -212.96541 -212.45718 -209.38848 -208.03958 -205.95222 -202.91301 -201.90044 -198.45198 -194.90188 -193.86154 -193.96130 -191.42544 -188.11556 -187.28841 -184.70142 -183.03048 -181.70220 -178.76574 -177.68064 -174.66609 -172.76055 -171.88634 -169.49833 -168.88554 -166.13322 -163.96087 -162.19902 -161.34532 -159.70847 -158.49539 -158.14955 -156.73869 -153.42984 -152.31987 -150.88138 -148.82693 -148.32335 -146.24148 -144.56321 -143.98080 -142.28970 -141.25794 -138.45181 -138.03323 -136.09507 -135.85152 -134.32596 -132.88722 -132.39864 -130.34542 -129.99934 -128.40477 -127.15299 -124.48428 -124.32591 -123.26251 -122.75807 -120.24297 -120.05244 -119.38591 -118.27344 -116.84439 -116.35654 -115.60402 -115.01163 -114.34512 -112.26450 -111.90547 -111.91259 -110.27092 -109.79329 -108.84108 -106.82352 -107.18600 -105.36541 -105.11728 -104.14407 -104.73192 -102.97408 -102.80880 -102.89736 -102.36518 -101.87538 -101.36056 -99.79969 -99.85067 -98.94301 -98.15857 -98.13596 -98.35408 -97.34483 -97.16705 -96.23159 -97.15978 -96.32110 -96.59035 -95.36539 -96.26666 -94.90118 -93.86672 -93.20431 -93.81838 -94.35509 -94.07420 -93.22837 -93.15510 -93.11832 -93.60557 -93.46378 -94.29277 -93.50555 -93.53738 -92.70503 -92.55434 -92.39058 -93.44974 -93.70922 -94.34454 -94.59982 -94.77088 -93.94935 -94.67246 -94.65273 -94.34366 -96.36444 -95.80676 -98.51368 -97.97391 -96.99936 -97.08804 -96.51573 -97.45987 -97.98820 -98.45057 -98.48062 -100.02557 -100.00084 -99.94796 -101.47920 -102.04420 -102.84682 -103.10085 -104.12430 -103.82605 -105.54760 -105.71611 -106.37104 -107.90407 -108.20231 -107.76393 -108.34237 -109.42408 -112.10790 -112.18030 -113.10831 -113.89931 -114.68105 -114.77090 -115.85992 -115.28203 -117.22499 -119.28112 -120.05536 -120.87727 -121.13752 -122.75869 -124.66287 -125.34692 -125.70442 -128.35885 -128.92933 -129.88055 -130.62066 -133.29105
-558.72746 -552.48708 -547.63928 -544.27176 -539.94314 -533.78891 -530.42950 -523.75847 -521.83241 -516.29789 -510.03378 -504.45610 -501.32914 -498.22818 -493.21259 -491.20771 -485.23988 -481.92130 -477.56916 -475.04244 -464.90168 -463.56505 -460.30043 -456.33068 -450.06690 -447.83246 -446.57992 -438.94902 -438.29464 -431.44560 -426.91056 -420.34886 -419.05226 -414.81240 -410.11244 -408.03500 -404.03303 -401.16448 -395.14550 -391.53250 -389.06444 -384.59866 -381.29073 -375.72186 -374.55829 -371.07650 -366.76248 -362.42418 -361.79438 -358.91921 -354.71781 -348.53217 -346.63623 -342.73262 -340.13984 -336.15766 -334.26170 -332.23541 -328.51187 -324.04795 -321.20299 -317.00876 -314.46620 -310.38804 -306.28025 -305.25759 -302.55509 -299.16145 -296.47556 -294.82732 -290.56819 -288.71172 -285.29586 -283.48700 -278.55942 -276.84137 -273.51566 -272.12017 -265.79552 -264.28647 -263.88774 -260.28274 -258.49317 -255.37609 -251.66761 -249.69428 -246.75613 -244.43255 -242.94671 -240.50905 -238.77006 -237.35160 -231.43425 -230.24320 -228.71553 -226.41358 -222.49025 -221.21127 -218.88161 -217.35678 -213.93458 -210.27678 -209.69996 -207.12177 -205.45582 -203.86816 -203.46536 -196.85808 -195.84127 -195.48742 -192.45484 -191.77364 -190.02484 -187.36867 -187.03119 -184.09477 -180.48061 -180.30968 -177.02937 -176.73522 -173.24654 -171.28501 -169.76451 -168.96218 -166.38188 -166.05896 -162.91746 -161.12168 -161.10885 -159.96788 -157.63661 -155.09462 -154.19091 -152.55423 -151.92740 -149.80449 -148.12052 -145.34479 -144.86038 -144.49169 -142.87445 -142.01407 -139.12477 -137.75053 -136.98956 -138.00398 -133.94343 -133.64062 -132.63045 -130.83460 -130.52968 -128.14662 -127.65418 -125.04839 -125.43115 -124.94472 -123.64338 -122.87720 -122.43533 -119.99632 -118.65445 -117.85614 -117.97468 -117.09710 -117.07752 -114.82645 -113.10080 -112.76812 -113.25175 -112.73978 -110.36639 -110.14683 -109.75561 -109.05791 -108.60893 -107.40681 -107.49326 -106.40413 -105.84799 -103.35152 -102.85374 -103.60761 -103.99245 -103.16562 -101.13458 -100.22575 -98.49332 -99.92553 -99.78682 -99.74979 -98.70076 -98.36601 -98.38408 -98.58873 -97.65228 -97.92572 -97.12273 -97.49465 -97.76710 -98.11704 -97.16533 -96.95210 -96.69389 -96.58849 -96.24331 -96.47681 -96.53063 -95.53943 -95.05134 -95.64948 -96.46022 -96.01648 -95.64455 -96.66666 -96.49873 -95.17054 -95.72179 -96.64593 -96.75259 -96.76743 -96.37128 -96.93855 -97.44222 -98.46547 -98.58961 -99.16114 -99.77119 -99.42906 -98.24316 -98.08250 -99.33147 -98.59792 -99.88898 -101.00923 -101.06289 -102.83527 -102.71056 -103.89548 -104.51704 -104.64695 -104.55803 -105.31274 -105.96266 -107.93920 -108.69815 -108.58347 -108.48082 -109.27715 -110.73556 -110.81902 -112.61045 -114.04624 -113.56854 -114.35505 -116.66493 -116.38252 -116.75528 -117.74801 -118.58629 -118.81044 -120.11037 -120.97509 -122.62486 -122.58613 -126.56549 -126.71132 -128.17446 -128.80368 -129.69935 -131.46329 -131.21140 -134.05606 -134.22285
-561.93619 -557.85358 -549.60357 -546.38054 -540.89918 -539.18005 -528.36518 -527.19755 -524.63510 -517.34119 -515.15145 -508.33894 -502.31911 -498.17797 -496.69462 -492.28795 -488.13474 -485.98667 -477.56092 -475.55888 -469.52459 -464.01201 -462.12684 -457.69841 -455.13428 -450.66564 -445.77790 -440.88434 -438.39603 -434.19347 -428.67086 -421.23737 -421.21764 -417.29332 -409.76471 -408.84752 -406.08201 -403.92935 -400.30494 -394.46861 -391.25154 -390.57924 -385.03272 -381.49564 -375.71040 -372.60379 -367.85777 -366.98466 -362.41297 -359.38839 -355.29293 -354.06336 -350.22330 -345.89049 -340.88995 -337.03216 -334.99698 -333.51063 -329.44796 -327.56059 -324.03681 -321.41280 -316.48608 -315.83918 -309.11095 -306.15472 -304.96316 -302.09688 -298.83967 -298.26729 -292.43060 -290.33907 -287.59551 -287.17337 -280.06352 -278.62374 -277.76230 -274.06185 -269.92851 -266.33229 -264.77667 -262.41644 -259.85318 -258.13106 -254.84463 -251.38033 -249.97000 -247.45731 -243.81488 -242.18666 -238.50529 -237.34181 -236.52939 -231.14518 -230.33523 -227.44569 -225.35482 -222.05129 -219.36865 -218.57282 -217.21009 -213.92594 -212.19891 -210.36032 -207.37405 -207.15364 -205.28421 -201.30877 -197.08834 -196.50517 -194.03509 -192.59017 -191.99351 -191.02154 -187.54334 -185.99254 -185.17501 -181.45071 -178.84497 -177.68914 -176.21666 -174.49517 -173.35235 -170.81160 -170.46871 -169.47443 -167.21301 -162.04915 -161.87345 -161.24223 -158.29774 -156.75266 -155.76587 -155.04047 -152.95922 -152.22829 -151.94408 -149.11556 -145.89088 -145.79278 -145.89948 -145.32396 -141.55130 -140.44655 -139.39647 -138.25951 -137.73811 -134.83361 -133.70206 -133.31881 -131.79789 -131.57141 -129.41501 -128.30150 -126.33383 -126.27718 -125.63079 -123.81429 -123.26424 -122.96645 -120.85210 -118.27472 -118.89092 -118.03131 -117.73896 -117.14732 -115.67559 -115.15774 -114.58827 -113.11069 -112.98031 -111.88561 -111.85591 -111.53388 -110.06997 -110.35318 -109.07310 -108.17434 -107.08615 -106.85553 -105.64413 -105.50780 -105.64393 -103.60174 -103.50431 -102.65426 -102.80184 -102.01430 -101.32128 -100.51545 -100.97805 -101.07944 -100.22084 -99.29134 -100.02293 -100.54981 -99.47303 -98.53201 -98.94954 -98.59422 -98.40273 -98.83119 -97.38456 -98.04872 -99.24817 -99.13684 -97.47339 -97.42006 -98.05737 -98.23822 -98.07349 -98.52008 -98.32288 -98.30110 -97.57226 -99.12527 -97.26448 -97.43141 -98.27763 -97.93806 -98.60777 -98.95195 -99.95474 -99.69393 -100.09710 -99.92774 -101.46885 -100.68014 -100.66601 -101.38648 -101.99103 -101.69450 -103.74227 -103.43065 -103.80392 -105.04142 -105.05366 -105.38984 -105.34121 -107.10934 -106.98005 -108.31696 -108.49349 -109.46661 -109.49501 -109.76901 -111.32455 -112.85250 -113.68791 -114.07383 -114.27626 -115.07485 -115.27964 -116.80289 -117.49228 -119.32846 -118.56411 -121.56711 -122.06521 -120.42751 -123.06257 -123.15615 -124.68773 -125.18941 -127.28097 -128.21882 -129.44991 -130.01401 -131.96190 -132.74840 -135.88677 -136.86182 -136.69962
-563.90435 -561.85039 -555.01286 -546.95397 -545.37525 -541.50333 -539.44779 -528.97729 -527.63132 -522.01911 -520.93359 -514.00096 -506.25367 -503.10999 -498.78451 -494.75861 -493.58077 -485.71189 -483.98932 -478.26174 -473.57502 -466.93316 -464.83331 -462.58626 -457.23579 -451.70922 -448.33531 -445.28162 -439.07987 -438.15662 -432.81751 -428.19534 -424.01905 -423.76869 -416.45522 -411.14128 -410.17728 -405.53316 -400.85183 -397.14203 -393.57655 -391.49922 -386.53040 -383.75555 -383.23424 -377.02131 -368.50968 -368.06326 -363.11031 -361.16271 -355.31656 -354.47404 -351.12926 -346.46160 -343.55433 -340.77704 -337.43998 -335.70308 -332.92659 -327.73714 -326.20978 -322.36833 -320.65010 -315.87055 -312.62990 -310.76962 -307.08308 -306.00700 -300.41226 -298.19333 -295.26213 -293.26578 -289.34430 -287.13787 -286.49641 -280.19864 -278.51764 -275.38799 -273.13502 -270.66123 -268.03985 -263.37220 -261.28823 -259.52048 -256.42621 -255.62481 -251.89586 -248.59377 -246.13974 -245.10029 -241.32501 -239.37982 -238.31740 -234.82902 -232.59068 -230.12472 -227.08149 -223.71268 -222.92828 -220.96730 -217.79180 -216.05121 -214.53530 -211.99939 -209.17978 -208.14042 -205.69517 -202.13258 -200.64299 -198.67407 -196.66594 -196.07524 -193.80795 -191.09837 -189.70229 -188.41557 -185.90956 -184.75503 -182.26934 -180.73697 -179.40041 -177.91295 -175.05712 -172.27699 -171.34936 -171.09325 -169.24677 -166.20160 -165.46152 -162.39796 -162.54986 -161.54430 -159.02983 -156.78874 -155.21459 -153.09620 -152.80954 -150.34150 -149.30350 -147.46982 -146.64892 -145.33495 -143.91303 -143.15322 -142.22624 -140.01019 -139.36109 -139.02901 -136.53987 -134.96066 -134.30474 -133.14059 -134.19918 -131.71524 -130.44062 -128.85901 -128.72773 -127.34300 -125.13279 -124.39677 -123.97289 -123.15274 -122.47903 -121.20903 -120.40130 -118.66554 -117.93973 -117.57792 -115.31451 -114.97779 -114.76409 -112.72777 -112.16757 -111.63115 -112.61708 -111.36516 -109.93893 -109.42193 -109.61590 -109.57211 -108.81420 -108.64746 -106.29133 -105.70310 -105.47016 -105.79139 -105.87444 -104.46893 -104.20903 -103.38572 -103.78712 -102.36995 -102.16878 -101.29536 -101.37841 -101.58803 -101.94555 -101.21011 -100.68435 -100.18619 -100.50222 -100.28597 -99.69506 -99.98905 -100.18031 -99.77797 -100.79993 -100.36276 -100.57206 -99.67209 -98.70153 -99.49425 -100.96573 -100.95255 -100.99574 -100.37971 -100.35839 -100.47223 -99.73870 -101.14706 -101.92426 -101.86722 -101.40159 -102.18809 -102.15986 -102.02729 -102.52476 -102.70197 -103.96633 -104.51738 -105.08182 -107.02906 -106.12227 -105.99225 -106.37395 -106.72492 -107.31114 -107.85437 -107.81991 -108.22366 -109.33185 -110.57504 -110.87908 -110.64806 -112.90359 -114.74762 -114.64646 -114.53391 -115.27892 -116.94384 -115.89690 -116.48464 -117.80671 -119.56240 -119.49246 -120.69880 -123.28552 -123.59632 -124.70516 -125.30505 -126.30232 -126.35298 -128.51880 -129.31555 -130.24757 -131.38183 -132.42627 -133.08046 -135.30253 -136.22898 -136.40883 -137.43126 -138.66927
-568.89556 -563.42303 -556.49953 -550.41165 -545.25292 -542.37899 -539.60911 -533.03984 -528.15403 -525.73891 -518.86047 -517.85701 -511.00267 -505.49088 -500.40263 -498.24020 -491.90884 -489.58099 -483.58033 -480.08875 -478.07009 -471.25132 -465.86579 -462.95586 -458.24285 -454.56359 -452.52705 -446.57920 -439.59566 -439.01358 -434.19458 -430.25158 -428.65055 -424.04554 -418.31577 -413.99832 -411.39783 -409.30597 -403.36393 -400.55194 -396.23920 -393.73805 -388.11043 -385.14538 -384.21707 -378.61150 -376.43335 -370.39524 -369.48281 -362.08691 -358.75532 -356.10250 -355.20533 -350.77057 -347.32253 -344.80744 -341.03471 -336.61394 -333.77025 -331.97903 -327.12270 -324.35689 -323.17697 -316.10766 -315.17684 -312.81510 -308.09607 -306.50117 -303.78138 -302.53272 -295.23788 -294.57466 -291.45967 -289.56141 -287.00812 -284.08527 -281.72076 -277.19181 -273.88421 -272.94355 -269.65417 -265.59336 -261.79894 -260.60422 -259.98092 -257.85052 -253.73893 -250.86713 -249.49561 -246.10611 -244.69100 -242.16449 -240.74895 -236.91163 -235.27599 -234.94729 -231.74585 -225.36646 -224.09673 -222.14538 -220.44336 -216.99258 -215.38249 -214.04526 -212.03087 -210.89900 -208.17030 -205.56490 -203.23488 -200.80025 -200.05654 -196.80410 -194.94557 -193.94405 -192.48225 -189.69684 -187.45021 -186.99634 -184.70572 -181.56294 -179.89549 -178.92027 -177.79282 -176.52443 -172.46331 -171.53370 -170.29076 -169.65723 -166.64749 -164.47147 -164.29457 -162.84994 -161.61991 -159.69182 -157.07564 -156.22218 -155.81739 -153.44029 -152.71376 -150.39122 -149.26522 -148.53281 -147.34506 -144.73096 -143.79414 -143.19629 -141.02116 -139.84700 -138.94827 -137.54656 -136.61248 -135.30418 -135.07617 -132.75718 -132.01880 -131.58134 -129.66783 -129.44967 -128.06961 -127.60774 -125.66842 -125.69359 -124.86470 -124.00036 -121.21984 -120.40523 -119.92093 -120.13510 -118.66394 -118.33445 -115.75849 -116.00263 -115.31570 -114.11522 -113.25546 -113.27030 -112.93800 -112.09952 -111.37286 -111.37490 -110.53331 -109.86970 -109.79772 -110.02963 -108.77568 -108.83003 -108.46466 -107.82942 -107.15318 -106.80327 -105.92878 -105.65922 -105.13695 -106.01552 -104.13046 -103.46946 -102.75962 -103.09291 -103.24209 -103.48180 -103.94293 -103.98360 -102.94178 -102.70465 -102.96351 -104.55029 -103.27454 -101.84168 -101.31833 -101.00804 -101.72498 -101.66043 -101.95360 -102.90410 -103.49903 -103.76748 -103.22021 -101.79714 -102.66902 -102.95204 -103.18977 -103.96511 -103.62033 -103.23633 -103.88379 -104.62321 -105.21972 -106.04133 -107.26944 -106.82298 -107.18462 -107.50689 -107.78236 -108.24938 -108.46299 -109.44972 -110.02663 -110.37040 -110.10996 -111.51504 -112.15455 -112.23057 -112.73612 -113.82040 -115.19907 -115.21116 -116.03976 -116.54965 -116.92800 -117.99497 -119.97235 -120.29916 -120.95521 -121.22984 -122.50836 -123.51402 -124.22274 -125.34761 -125.43840 -126.28058 -129.06894 -129.77699 -130.03378 -133.54595 -133.37404 -133.84452 -134.42389 -134.32044 -138.67508 -137.18668 -138.25144 -139.63261 -141.91027
-568.95088 -566.60550 -560.89659 -551.28541 -546.68673 -543.35237 -541.62961 -534.62328 -530.24994 -527.35638 -520.22771 -516.14036 -513.76368 -507.77538 -505.40194 -498.75882 -496.47354 -491.09173 -485.72574 -482.45505 -478.91162 -474.43001 -470.69364 -465.01641 -459.70666 -458.65669 -454.24561 -451.22308 -446.78875 -440.89454 -436.20017 -434.56428 -429.05204 -426.56998 -420.43145 -416.02582 -414.12228 -411.31328 -403.70303 -401.70944 -398.23113 -395.81517 -390.42018 -388.64728 -384.08800 -379.94351 -378.33150 -374.66362 -373.78250 -370.28575 -363.09090 -357.70460 -356.88668 -354.07785 -351.03019 -346.10961 -342.36631 -339.98839 -337.03582 -334.75719 -331.99333 -326.09523 -324.97052 -321.06278 -315.91199 -315.52239 -311.87040 -307.62487 -305.52071 -304.11389 -299.94489 -296.85646 -296.16059 -290.28160 -289.12313 -285.69153 -283.62522 -279.19022 -278.07063 -273.71305 -273.95135 -267.44544 -265.40873 -262.26006 -261.36295 -259.52023 -255.96418 -254.97546 -249.17386 -248.03049 -246.12088 -243.67097 -242.47162 -240.05798 -236.29855 -234.07134 -233.14649 -230.63250 -229.52055 -225.57783 -224.28686 -218.48526 -217.99629 -216.32459 -215.82691 -212.29393 -210.98084 -208.31384 -205.01475 -203.93727 -202.19631 -201.19353 -198.57488 -194.82901 -193.58475 -191.98542 -189.26708 -188.47497 -186.28001 -185.14125 -183.75682 -181.53090 -180.16780 -177.49967 -174.79172 -172.71132 -173.04541 -170.72501 -168.42073 -167.58259 -166.02174 -165.55242 -162.38214 -160.96673 -160.50096 -158.00116 -157.44146 -154.51639 -153.90971 -152.72434 -150.07910 -150.63755 -148.22036 -147.44268 -146.32846 -145.31136 -143.31160 -141.60102 -140.97142 -140.25751 -139.67810 -137.30900 -135.69595 -135.41581 -134.80105 -133.69899 -131.39914 -130.98431 -129.49854 -128.35458 -127.14157 -126.01919 -125.88436 -124.82837 -123.73588 -123.32313 -122.18015 -121.71630 -121.76928 -122.23554 -120.03845 -119.28862 -118.35961 -117.18694 -116.55804 -116.34374 -115.19717 -114.37985 -113.23550 -112.45300 -112.42484 -112.96668 -112.35888 -112.22596 -111.79709 -110.90544 -109.77116 -109.17571 -110.57055 -109.48048 -109.09325 -107.17321 -107.34914 -106.97539 -107.01321 -106.79432 -105.61910 -105.87931 -104.23849 -106.22980 -105.23721 -105.99804 -105.73311 -104.93527 -104.71404 -105.13932 -105.04314 -104.64554 -104.14613 -104.29902 -104.89001 -104.56702 -104.76966 -104.29356 -104.82719 -104.43453 -105.33668 -105.65516 -105.92196 -105.31970 -105.36061 -107.18809 -107.15169 -106.19475 -106.01307 -107.49682 -107.49539 -108.35795 -108.02888 -109.61933 -109.12339 -109.49325 -109.98122 -109.59534 -109.99872 -110.80639 -110.92698 -110.81234 -112.69702 -113.75580 -114.47388 -114.84905 -115.28185 -117.70706 -117.15231 -116.59990 -118.28224 -118.91915 -119.72253 -120.97501 -121.21003 -122.12485 -122.78947 -123.58659 -124.12943 -124.78927 -126.54951 -126.45227 -126.49664 -129.37401 -130.22524 -132.15084 -133.34830 -135.75508 -134.35005 -134.87071 -135.82684 -138.26852 -139.08511 -139.90819 -140.97132 -142.39421 -143.34414
-570.13223 -568.39469 -566.23830 -555.88861 -547.45233 -546.96975 -544.05157 -535.64360 -531.35223 -528.55010 -527.80983 -516.84339 -513.68427 -511.73250 -506.46471 -503.15933 -496.82860 -494.00782 -488.51892 -483.68365 -481.93399 -476.33958 -472.59336 -470.72589 -462.12258 -460.11633 -455.17889 -453.90919 -448.05096 -443.03446 -441.15558 -435.68989 -432.40081 -427.43095 -425.70321 -420.23798 -415.68120 -414.38966 -408.29738 -404.45789 -401.69474 -396.92203 -396.19597 -390.83332 -385.16235 -384.00839 -381.07145 -378.25791 -376.25855 -368.94493 -366.83617 -363.18838 -358.34733 -356.45544 -351.96332 -349.77618 -345.76872 -341.43632 -340.01416 -336.46354 -332.37556 -330.99574 -328.54661 -324.84025 -321.96496 -317.35122 -314.88780 -312.63535 -308.64964 -305.15991 -303.26946 -299.98902 -296.60327 -295.02771 -291.99592 -289.05770 -284.61511 -284.12266 -279.66951 -277.69955 -275.29448 -275.12938 -269.31053 -265.54663 -264.16936 -260.90658 -257.26850 -256.13413 -254.32998 -250.34811 -249.11074 -244.80034 -244.31994 -241.18857 -239.27301 -237.67149 -233.86796 -232.74557 -230.70849 -230.25918 -224.57408 -223.33766 -221.06980 -218.29150 -216.35691 -215.18848 -213.30440 -211.87970 -207.92030 -205.83737 -204.88201 -202.72551 -201.16341 -198.71855 -196.00493 -195.03415 -192.58678 -191.20626 -189.04287 -187.56155 -185.44893 -182.16554 -182.02679 -179.91596 -178.67191 -175.64216 -174.64300 -173.73535 -171.54099 -170.18092 -169.52520 -166.59743 -165.45122 -161.04175 -161.18162 -161.63725 -160.79515 -158.31172 -156.72777 -153.59796 -152.79694 -152.03077 -151.27938 -149.64025 -146.92608 -146.99495 -144.62958 -142.01878 -142.17966 -141.56861 -140.61286 -140.38055 -138.38891 -137.72648 -135.65184 -135.28868 -133.90987 -133.33878 -133.64890 -131.28498 -129.94691 -129.52859 -128.69623 -127.40882 -126.25015 -125.17890 -125.72212 -123.84466 -122.96329 -122.79263 -122.37248 -121.40297 -121.38077 -119.85225 -119.65710 -118.04748 -117.70709 -117.30665 -116.55870 -117.32292 -115.68018 -113.93416 -113.89181 -113.75519 -112.01927 -111.37677 -111.24121 -111.35643 -111.10021 -111.00516 -109.99548 -109.70547 -108.97620 -109.29862 -107.67006 -108.32719 -107.21179 -106.91048 -107.64816 -108.06754 -108.01806 -107.67448 -106.76885 -105.45169 -106.74009 -106.72925 -106.78882 -106.70068 -107.38250 -107.55538 -107.28064 -107.14814 -106.89278 -106.88595 -106.75598 -106.84234 -106.67632 -108.24241 -108.59813 -108.73505 -108.74124 -108.20694 -108.04128 -109.31806 -108.99927 -108.55179 -110.01129 -109.92083 -110.53261 -111.52015 -111.75843 -112.08976 -112.27030 -112.54005 -113.52724 -113.23046 -113.25447 -115.03033 -115.83889 -115.49220 -115.31945 -116.50944 -117.48228 -118.33003 -118.94318 -119.04512 -119.65657 -120.09914 -122.22641 -122.68297 -123.62723 -124.78907 -124.97505 -126.02759 -126.63430 -127.92933 -127.59698 -129.02547 -131.26226 -131.74353 -132.45465 -132.93333 -134.45570 -135.91220 -136.12209 -137.06014 -138.55348 -139.66907 -141.31831 -141.75762 -143.59619 -144.50095 -145.91608
-573.92897 -569.04649 -569.13602 -562.51341 -553.78255 -552.17604 -548.54012 -543.19453 -535.04164 -531.43171 -527.75918 -521.24821 -517.38707 -512.32992 -509.78461 -504.41463 -500.90124 -495.22864 -493.31760 -486.50013 -482.92720 -479.38120 -475.07199 -471.73391 -464.91938 -461.58652 -456.64345 -454.48382 -449.57068 -443.68494 -441.46574 -436.99895 -433.74957 -431.11144 -427.17922 -424.32771 -419.37104 -415.95452 -414.48214 -408.58388 -403.23099 -400.55675 -397.01493 -392.07987 -391.00853 -385.42576 -382.98188 -378.51207 -376.24235 -371.78530 -367.79947 -366.35027 -362.19666 -357.38834 -354.13667 -350.40593 -345.56814 -345.09252 -341.10660 -341.01290 -336.63660 -332.44989 -329.97080 -325.65146 -324.10081 -320.04101 -315.48326 -314.64749 -310.99893 -310.13696 -302.87809 -301.52955 -299.24108 -295.91240 -294.40200 -290.15441 -288.03794 -285.69563 -280.33050 -278.97329 -276.82631 -275.45873 -271.89046 -270.52003 -266.46626 -264.97675 -261.73478 -257.86356 -255.95889 -251.90773 -250.10430 -248.38195 -246.18364 -243.54455 -242.15995 -238.99420 -237.81119 -234.22229 -231.89400 -230.44015 -228.24091 -226.75626 -224.43393 -221.94438 -218.17894 -217.47600 -214.36710 -212.79596 -209.76576 -209.38485 -205.61970 -204.24875 -202.64541 -201.75452 -199.63073 -196.36743 -194.26514 -192.51189 -189.06672 -188.89599 -187.08627 -187.21076 -184.39691 -185.47535 -181.56457 -179.39101 -176.77278 -175.91384 -174.15202 -170.89738 -170.69861 -169.14633 -168.44891 -165.30224 -164.80325 -161.86073 -161.58261 -160.43083 -160.22236 -157.49250 -157.07557 -154.90785 -152.62366 -151.28527 -149.99494 -148.76202 -148.42491 -148.36571 -144.97364 -144.10164 -142.09342 -141.40277 -140.12946 -139.19992 -139.36120 -137.87044 -136.55338 -135.95845 -134.88184 -134.70378 -133.27676 -132.41713 -131.31103 -129.75529 -128.98475 -128.34795 -126.75439 -125.85860 -125.25139 -124.28714 -123.86044 -122.72127 -121.91517 -120.53912 -120.68917 -120.33140 -120.19666 -119.30242 -118.87098 -118.26278 -116.61356 -116.83183 -116.43550 -115.07282 -114.73934 -114.37430 -113.30957 -113.34002 -112.60819 -112.53118 -112.89317 -112.86193 -112.24417 -111.03671 -110.34045 -109.98050 -111.68985 -110.39203 -110.69095 -110.17906 -109.12898 -109.04132 -109.36010 -108.22245 -108.77176 -108.31917 -109.48991 -108.30353 -108.63226 -110.05409 -109.22607 -107.77610 -108.65023 -108.06437 -109.16933 -109.56728 -109.86141 -109.59519 -109.83016 -110.77612 -110.40796 -111.16198 -110.98471 -110.61761 -112.32067 -110.47485 -111.45922 -112.63402 -112.43662 -113.25849 -112.86100 -113.00461 -113.46551 -114.77352 -114.87389 -115.49496 -116.58645 -116.82892 -116.80948 -118.30674 -117.94115 -117.12704 -119.40683 -120.02808 -120.58246 -121.04148 -121.78616 -123.85185 -123.47333 -124.18933 -126.19446 -126.81185 -127.69084 -127.79980 -129.34424 -129.69720 -130.24681 -131.45954 -133.16705 -133.15405 -134.48459 -136.08656 -137.26517 -137.95506 -137.47913 -140.04571 -139.91239 -142.39238 -142.45283 -145.35030 -144.66154 -147.41358 -148.68082
-573.83647 -571.62104 -569.28554 -563.51819 -558.38120 -553.07767 -551.47459 -544.46128 -538.75326 -537.32192 -529.81723 -524.65794 -518.86589 -517.25032 -510.82334 -507.35999 -502.27611 -497.50593 -494.71500 -488.87384 -482.98500 -479.93633 -474.73245 -473.62373 -468.34100 -465.72892 -460.98315 -458.25245 -453.28321 -447.09123 -445.58400 -440.88194 -437.35149 -432.63692 -427.75192 -423.72201 -421.30632 -417.09040 -414.72620 -409.64515 -405.45224 -403.30552 -398.36205 -396.03627 -392.25102 -386.58093 -384.53023 -381.54572 -377.86406 -373.10162 -371.44703 -367.85792 -364.99161 -362.18752 -360.48095 -355.20778 -348.39108 -347.37416 -343.41720 -342.34715 -339.22569 -335.00654 -331.12767 -328.95662 -326.22513 -320.88951 -319.29006 -316.13911 -315.27146 -311.88085 -308.06767 -304.73117 -300.76617 -299.39025 -295.65988 -291.68765 -289.38017 -284.80875 -284.42417 -282.58847 -279.31836 -275.89166 -273.90127 -271.89448 -270.37365 -266.93640 -263.00051 -262.35592 -259.45459 -255.73166 -251.97953 -251.86405 -247.93278 -243.60464 -243.60781 -242.26028 -239.92523 -238.16048 -234.83000 -230.86034 -230.38220 -228.02219 -226.50133 -223.07711 -222.16305 -219.12913 -218.60189 -214.40970 -214.24910 -210.67974 -209.58097 -206.93159 -206.61347 -201.97415 -201.66777 -199.81766 -197.31622 -195.65490 -193.19874 -192.07428 -189.71826 -188.31520 -186.54853 -186.27256 -184.00613 -181.02825 -178.65341 -178.15187 -177.41223 -174.43973 -172.98314 -172.76327 -169.72970 -169.58263 -166.34635 -165.54179 -163.91665 -161.93574 -160.98365 -160.17294 -158.67281 -156.30863 -155.82658 -154.17991 -153.43872 -152.09783 -152.13699 -149.39993 -148.22675 -147.45712 -145.58502 -144.67911 -142.34288 -141.20697 -140.87352 -140.17321 -139.73858 -138.40681 -135.99678 -134.98991 -135.04342 -133.12732 -133.18691 -132.15048 -131.41580 -130.29033 -129.95065 -128.51935 -128.27799 -126.94324 -126.61032 -125.68745 -125.17754 -124.01402 -122.85283 -121.57254 -121.28601 -119.83854 -120.61548 -120.64097 -119.85316 -119.28125 -119.26520 -117.91243 -117.57238 -119.31547 -117.29358 -116.90394 -115.43009 -114.98345 -113.98965 -113.20969 -112.87893 -112.05166 -113.27582 -113.19454 -112.98194 -112.84721 -111.96542 -113.50144 -112.78868 -111.86298 -111.87835 -112.92691 -111.07330 -110.41590 -112.53735 -112.13566 -111.16891 -111.06530 -111.01959 -110.85276 -111.78045 -111.72017 -111.98336 -111.10885 -112.58874 -112.63437 -111.73282 -111.31182 -111.75930 -112.42591 -113.06890 -113.24106 -113.21633 -114.82331 -114.66572 -113.48292 -114.30267 -114.22009 -115.97987 -115.57165 -116.04112 -117.01010 -117.54974 -117.27984 -119.21957 -119.41841 -119.23689 -119.64620 -120.41012 -120.43849 -122.13166 -123.37431 -123.98176 -124.73607 -124.90698 -125.22715 -125.71300 -126.50625 -127.11498 -128.64748 -128.21642 -129.75802 -129.89039 -131.34891 -133.13652 -133.64555 -134.31082 -136.02988 -137.46120 -138.40187 -138.26521 -139.10274 -141.77303 -143.07911 -144.00677 -146.07619 -146.70565 -146.41672 -147.66793 -148.80902 -150.14085
-580.49031 -576.29339 -572.25998 -565.06966 -559.82548 -553.15451 -551.51131 -546.95759 -540.85746 -538.09397 -531.71349 -527.21098 -524.90960 -519.00375 -514.93064 -508.45156 -506.45779 -502.30841 -497.54276 -496.21393 -485.69458 -481.75430 -480.01240 -476.17419 -470.27798 -466.43009 -463.10609 -460.36461 -458.33864 -449.02240 -447.79187 -446.53131 -438.90262 -432.69057 -431.38425 -428.34231 -423.42543 -421.22025 -417.29508 -410.63420 -408.89533 -405.15926 -403.14085 -399.79345 -396.17908 -390.79698 -388.29782 -383.26401 -381.10311 -377.34451 -372.29963 -370.56794 -366.31911 -362.93838 -361.64954 -355.38076 -353.09295 -348.88236 -347.61567 -343.41263 -339.28103 -335.95306 -333.43138 -331.47380 -330.64658 -321.68212 -320.62770 -318.81075 -315.90221 -313.91446 -309.95444 -305.52213 -304.95797 -300.80349 -299.24070 -294.27743 -293.41795 -289.60653 -288.11575 -284.24395 -282.90442 -278.39151 -276.43780 -274.00791 -273.30248 -269.74158 -266.37463 -265.69192 -260.35483 -258.23429 -257.92137 -253.31281 -249.71638 -246.44555 -245.26185 -245.04887 -241.05997 -240.09766 -239.53250 -233.28914 -231.31623 -230.72628 -230.32905 -226.82811 -224.76180 -221.62378 -219.21333 -218.43593 -216.35707 -212.52729 -211.00901 -208.44440 -207.30237 -205.97302 -202.28712 -201.65721 -200.36551 -199.86186 -197.42506 -194.67269 -192.03994 -191.16948 -188.24388 -186.71204 -185.86644 -184.12520 -182.53690 -178.75509 -178.58962 -177.43403 -176.54858 -173.68280 -172.75352 -172.90416 -170.51739 -169.00768 -164.97554 -164.43763 -163.72324 -162.29951 -161.28571 -158.73932 -157.32627 -157.15477 -155.17160 -153.33339 -152.78828 -152.48756 -149.20486 -148.66777 -148.53590 -147.32430 -146.54293 -144.55719 -142.08191 -141.65246 -141.59905 -140.65702 -139.18263 -137.77109 -136.50486 -135.88161 -134.80280 -134.89232 -133.76473 -132.73584 -132.16918 -131.40038 -129.47075 -128.56014 -128.62776 -128.32348 -127.22835 -126.44724 -126.01828 -124.33589 -124.15733 -122.16482 -122.28843 -123.19213 -122.27311 -121.91333 -121.58106 -120.66235 -120.86523 -119.70523 -118.47388 -118.73984 -118.02828 -117.71136 -117.94420 -116.23988 -115.97652 -116.35791 -116.89318 -116.25381 -116.37894 -115.68721 -115.58507 -114.36405 -114.91453 -114.90019 -114.09770 -115.49107 -114.69736 -114.62013 -113.42354 -113.17880 -113.33478 -114.36619 -113.16647 -113.34930 -113.12970 -113.20004 -113.05422 -114.10113 -113.57121 -113.68904 -115.12309 -114.51107 -114.00916 -114.71865 -113.67387 -114.65658 -117.21688 -115.97369 -116.48415 -116.46103 -117.31709 -117.27150 -117.56911 -116.87384 -119.39891 -118.77415 -118.58128 -120.44045 -120.34023 -120.47464 -121.40171 -122.99469 -122.89783 -124.90738 -125.32520 -124.60228 -125.44196 -126.21231 -127.09487 -128.23361 -128.48753 -129.01781 -129.23769 -130.71898 -131.09453 -131.63266 -133.26100 -133.44878 -135.31728 -135.57721 -137.76577 -138.12016 -139.02224 -139.00036 -140.93546 -141.81707 -143.12216 -143.37023 -146.33346 -147.65503 -147.54451 -149.22672 -150.84602 -151.69626 -152.51376
